ply 
format ascii 1.0 
element vertex 1280
property float x 
property float y 
property float z 
property uchar red 
property uchar green 
property uchar blue 
end_header 
-0.06287108 -0.1913359 0.802 28 30 20
-0.05835506 -0.1908687 0.8 24 29 17
-0.05379272 -0.1901621 0.7970001 24 26 16
-0.04938656 -0.189932 0.7960001 27 29 19
-0.04482099 -0.1889854 0.7920001 22 24 16
-0.0404008 -0.1885152 0.79 27 27 19
-0.03595628 -0.1878057 0.7870001 28 29 23
-0.03162454 -0.1875727 0.786 28 28 18
-0.02726856 -0.1871004 0.784 27 28 14
-0.02293408 -0.1866274 0.7820001 28 29 17
-0.01862115 -0.1861536 0.78 28 28 20
-0.01438508 -0.1863951 0.781 29 29 21
-0.01007312 -0.1854425 0.777 27 27 17
-0.005842215 -0.1856825 0.7780001 26 28 18
-0.001596228 -0.1854445 0.777 24 26 16
0.00264567 -0.1856831 0.7780001 22 25 13
0.006889591 -0.1856823 0.7780001 25 26 14
0.0110905 -0.1849647 0.775 22 23 11
0.01533761 -0.1852011 0.776 24 25 13
0.01962068 -0.1856755 0.7780001 22 22 12
0.02386398 -0.1856718 0.7780001 26 26 18
0.02803475 -0.1851901 0.776 26 28 18
0.03218339 -0.1847077 0.774 27 30 18
0.03635688 -0.1844633 0.7730001 25 28 16
0.04062402 -0.1846955 0.774 24 26 16
0.04484368 -0.1846884 0.774 22 24 14
0.04912622 -0.1849193 0.775 24 25 13
0.05341912 -0.1851494 0.776 20 20 10
0.05772232 -0.1853789 0.777 19 19 9
0.06195607 -0.1853691 0.777 18 18 8
0.06618915 -0.1853588 0.777 17 17 9
0.07069342 -0.1860635 0.78 16 16 8
0.07474925 -0.1855749 0.7780001 15 15 7
0.07898559 -0.1855628 0.7780001 17 17 9
0.08332807 -0.1857886 0.779 16 16 6
0.08768062 -0.1860139 0.78 21 21 11
0.09192535 -0.1860001 0.78 18 21 9
0.0960459 -0.1857475 0.779 23 24 12
0.1002834 -0.1857328 0.779 26 26 16
0.1046541 -0.1859561 0.78 25 27 19
0.1091744 -0.1864173 0.7820001 28 28 18
0.1132804 -0.1861629 0.781 25 25 17
0.117525 -0.1861466 0.781 29 27 17
0.1220804 -0.1866065 0.7830001 24 24 14
0.1266567 -0.1870661 0.785 24 25 13
0.13092 -0.1870487 0.785 21 22 10
0.1355269 -0.1875075 0.7870001 18 18 8
0.140332 -0.1882043 0.79 15 15 7
0.1453518 -0.1891389 0.794 16 15 9
0.1504141 -0.1900732 0.798 15 14 8
0.1553249 -0.1907689 0.8010001 16 15 9
0.1602673 -0.1914644 0.804 13 12 6
0.1646269 -0.1914454 0.804 14 13 7
0.1696163 -0.1921405 0.807 14 16 8
0.1778897 -0.1705945 0.717 31 31 21
0.1799969 -0.168913 0.71 35 33 23
0.1822868 -0.1674699 0.7040001 31 31 21
0.1850401 -0.1665031 0.7 30 32 24
0.1874799 -0.165299 0.6950001 26 28 20
0.1901406 -0.1643333 0.691 29 29 21
0.1935996 -0.1640815 0.6900001 30 30 20
0.1973335 -0.164068 0.6900001 28 28 18
0.2007761 -0.1638172 0.689 29 29 21
0.2042078 -0.1635669 0.688 30 32 22
0.2079311 -0.163555 0.688 26 28 18
0.2119623 -0.1637814 0.689 29 29 19
0.2160046 -0.1640083 0.6900001 23 26 14
0.2203765 -0.1644736 0.692 21 22 10
0.2244468 -0.1647019 0.693 22 23 11
0.2291871 -0.1654062 0.696 21 22 10
0.2352994 -0.1670618 0.703 19 20 8
0.2411484 -0.1684805 0.7090001 21 24 12
0.2467178 -0.1696623 0.714 23 28 16
0.2530444 -0.1713203 0.721 25 32 21
0.2587354 -0.172504 0.726 75 82 78
0.2677384 -0.1758271 0.74 138 145 144
0.2801999 -0.1812896 0.763 170 176 178
0.2705532 -0.1724973 0.726 185 186 192
0.2752523 -0.1729727 0.728 196 195 201
0.2711539 -0.1679845 0.707 195 194 198
0.2890005 -0.176541 0.743 192 191 195
0.2894928 -0.1744067 0.734 197 196 200
0.2934884 -0.1744123 0.734 201 200 206
-0.2284462 -0.253204 1.04 48 54 47
-0.2206675 -0.2507936 1.03 41 46 35
-0.2127873 -0.2481393 1.019 33 35 25
-0.2064491 -0.2471892 1.015 29 31 21
-0.200945 -0.2472131 1.015 26 27 13
-0.1950547 -0.2467497 1.013 26 27 15
-0.1897463 -0.247017 1.014 19 21 11
-0.1842442 -0.2470404 1.014 18 20 12
-0.1787408 -0.2470637 1.014 17 17 9
-0.1735779 -0.247574 1.016 16 16 8
-0.1680613 -0.2475967 1.016 13 15 7
-0.1628633 -0.2481065 1.018 13 14 8
-0.157797 -0.2488597 1.021 12 13 7
-0.1522494 -0.2488814 1.021 11 12 6
-0.1465569 -0.2486589 1.02 13 12 6
-0.1386622 -0.2445349 1.003 13 15 7
-0.1192637 -0.2189533 0.8980001 39 43 36
-0.1118327 -0.2140937 0.878 32 36 29
-0.1062035 -0.2124031 0.8710001 33 38 27
-0.09890196 -0.2070535 0.849 33 37 29
-0.09272735 -0.2036538 0.835 32 37 26
-0.08733786 -0.2017165 0.827 31 34 22
-0.08223496 -0.2002662 0.821 30 33 21
-0.07767017 -0.2000349 0.8200001 26 28 18
-0.07257983 -0.1983392 0.813 27 29 19
-0.06764882 -0.1968866 0.807 26 28 18
-0.06301763 -0.1961653 0.804 30 31 19
-0.05834552 -0.1951992 0.8 29 29 19
-0.05391883 -0.1949644 0.799 30 27 20
-0.04937838 -0.1942409 0.7960001 24 26 18
-0.04487011 -0.1935166 0.793 26 28 18
-0.04039404 -0.1927917 0.79 27 27 19
-0.03595024 -0.1920659 0.7870001 25 27 19
-0.03157898 -0.1915835 0.785 27 27 17
-0.02722917 -0.1911004 0.7830001 27 28 14
-0.02290087 -0.1906165 0.781 26 27 13
-0.01861799 -0.1903759 0.78 28 29 17
-0.01436422 -0.1903787 0.78 29 27 16
-0.01008436 -0.1898927 0.7780001 26 27 15
-0.005848726 -0.1901381 0.779 23 26 14
-0.001595955 -0.1896506 0.777 21 24 12
0.002641818 -0.1896505 0.777 24 25 13
0.006870707 -0.1894056 0.776 24 25 13
0.01110292 -0.1894041 0.776 23 23 13
0.01529548 -0.1889137 0.774 23 24 12
0.01954169 -0.1891548 0.775 25 27 17
0.0237986 -0.1893952 0.776 27 27 17
0.02799389 -0.1891467 0.775 24 26 16
0.03221954 -0.1891416 0.775 25 28 16
0.0363978 -0.1888918 0.774 27 29 19
0.04066971 -0.1891294 0.775 22 24 14
0.04489415 -0.1891223 0.775 20 22 12
0.04911809 -0.1891145 0.775 20 20 10
0.05347916 -0.189594 0.777 19 19 9
0.05778718 -0.1898289 0.7780001 17 17 9
0.06194602 -0.1895752 0.777 14 16 8
0.06617849 -0.1895648 0.777 17 17 9
0.07059152 -0.1900418 0.779 16 16 8
0.07464135 -0.1895423 0.777 18 18 8
0.07887168 -0.1895303 0.777 23 23 13
0.08310122 -0.1895176 0.777 25 26 14
0.08755475 -0.1899922 0.779 25 26 12
0.09179353 -0.1899785 0.779 23 26 12
0.09603146 -0.1899643 0.779 29 30 18
0.1001398 -0.1897058 0.7780001 27 27 17
0.1046388 -0.1901784 0.78 26 28 20
0.1088795 -0.1901629 0.78 29 29 19
0.1131192 -0.1901469 0.78 27 27 17
0.1175085 -0.1903744 0.781 29 27 16
0.1220636 -0.1908452 0.7830001 24 24 14
0.1263168 -0.1908282 0.7830001 21 21 11
0.131236 -0.1917857 0.7870001 18 18 10
0.1360256 -0.192499 0.79 14 16 8
0.1406692 -0.1929683 0.7920001 15 16 10
0.1458826 -0.1941683 0.7970001 11 12 6
0.1503955 -0.1943934 0.798 12 13 7
0.1549183 -0.1946183 0.799 10 11 5
0.159451 -0.1948431 0.8 11 12 6
0.1644032 -0.1955548 0.803 13 14 8
0.169387 -0.1962664 0.8060001 12 13 7
0.1761369 -0.1727743 0.71 28 28 20
0.1789671 -0.1717852 0.706 30 29 23
0.1814947 -0.1705532 0.701 31 33 25
0.1842321 -0.1695651 0.697 34 34 24
0.186926 -0.1685775 0.693 31 31 21
0.1901266 -0.1680769 0.691 30 31 19
0.1933054 -0.1675767 0.689 29 30 18
0.1967485 -0.1673204 0.688 31 30 16
0.1998893 -0.1668213 0.686 29 27 16
0.2036022 -0.1668092 0.686 28 30 22
0.2073152 -0.1667977 0.686 32 33 27
0.2110285 -0.1667868 0.686 31 32 26
0.2156813 -0.1675058 0.689 30 32 24
0.2194116 -0.1674962 0.689 34 36 26
0.2241141 -0.1682166 0.692 29 31 21
0.227862 -0.1682085 0.692 27 29 19
0.233284 -0.1694165 0.697 28 30 20
0.2380809 -0.1701392 0.7 23 26 14
0.2436024 -0.1713488 0.705 25 30 16
0.2495303 -0.1728024 0.711 34 40 32
0.2573064 -0.1754722 0.7220001 54 62 55
0.2677359 -0.1798441 0.74 131 138 137
0.2787297 -0.1844602 0.7590001 168 174 177
0.2686898 -0.1752247 0.721 197 196 202
0.273363 -0.1757118 0.723 186 187 193
0.2715399 -0.1720685 0.708 195 196 202
0.2753905 -0.1720721 0.708 190 191 197
0.2713552 -0.167216 0.688 189 190 196
0.2591075 -0.1575 0.648 204 199 203
-0.216953 -0.239897 0.964 56 57 53
-0.2284218 -0.2588342 1.04 50 53 49
-0.220429 -0.2561206 1.029 33 37 29
-0.2125545 -0.2534065 1.018 30 32 24
-0.2066286 -0.2529324 1.016 28 30 20
-0.2009212 -0.2527072 1.015 26 29 17
-0.194646 -0.2517349 1.011 23 26 14
-0.1887873 -0.2512602 1.009 18 20 10
-0.1838575 -0.2520306 1.012 21 21 13
-0.1788941 -0.2528008 1.015 19 19 11
-0.1733843 -0.2528237 1.015 18 15 8
-0.1680388 -0.2530954 1.016 16 16 8
-0.1626812 -0.2533668 1.017 15 14 8
-0.1573115 -0.2536379 1.018 15 14 8
-0.1523771 -0.2546561 1.022 14 13 7
-0.146967 -0.2549264 1.023 13 12 6
-0.1397479 -0.2519566 1.011 17 19 9
-0.119379 -0.2240622 0.899 41 45 37
-0.1113067 -0.2178481 0.874 33 37 29
-0.1058217 -0.2163688 0.868 30 32 22
-0.09946927 -0.2128944 0.854 28 33 21
-0.09304617 -0.2089203 0.8380001 33 35 25
-0.08753547 -0.2066904 0.8290001 32 35 21
-0.08242233 -0.2052077 0.823 27 32 20
-0.07746844 -0.2039735 0.818 26 28 18
-0.07238971 -0.2022399 0.811 29 29 19
-0.06788936 -0.2020018 0.8100001 26 28 18
-0.06308576 -0.2007654 0.8050001 25 28 16
-0.05833597 -0.1995283 0.8 22 24 14
-0.05384248 -0.1990387 0.798 24 24 14
-0.04937021 -0.1985484 0.7960001 26 27 15
-0.04497579 -0.1983067 0.795 25 26 14
-0.04043841 -0.1973161 0.791 27 27 17
-0.0359442 -0.1963247 0.7870001 26 27 15
-0.03157365 -0.1958314 0.785 27 28 16
-0.02725933 -0.1955869 0.784 24 27 15
-0.02286766 -0.1945933 0.78 26 28 18
-0.01861482 -0.1945968 0.78 24 26 16
-0.01438018 -0.1948491 0.781 24 24 14
-0.01008264 -0.1941027 0.7780001 24 26 16
-0.005832713 -0.1938546 0.777 23 23 13
-0.001593629 -0.1936057 0.776 23 23 13
0.002634568 -0.1933561 0.775 25 25 15
0.006860681 -0.1933553 0.775 24 24 14
0.01107241 -0.1931043 0.774 23 26 14
0.01529287 -0.1931021 0.774 26 27 15
0.01951316 -0.1930991 0.774 25 27 17
0.02370257 -0.1928459 0.7730001 30 30 22
0.0278447 -0.1923426 0.771 25 27 17
0.0320894 -0.192587 0.772 27 30 18
0.0363917 -0.1930802 0.774 24 26 16
0.04061045 -0.1930738 0.774 20 22 12
0.04488668 -0.1933161 0.775 19 21 11
0.0490466 -0.1930588 0.774 19 19 9
0.05326392 -0.1930504 0.774 18 18 8
0.05748069 -0.1930414 0.774 18 18 8
0.06177655 -0.1932811 0.775 19 21 13
0.06608269 -0.1935201 0.776 20 22 14
0.07030845 -0.1935092 0.776 19 21 11
0.0747256 -0.1939964 0.7780001 26 29 17
0.07896081 -0.1939843 0.7780001 27 30 18
0.08308832 -0.1937223 0.777 28 31 19
0.08731654 -0.1937092 0.777 27 28 14
0.09154396 -0.1936955 0.777 26 29 17
0.09589379 -0.1939307 0.7780001 25 27 17
0.1001249 -0.1939161 0.7780001 26 29 17
0.1044894 -0.1941503 0.779 27 28 16
0.1087242 -0.1941348 0.779 24 25 13
0.1128131 -0.1938697 0.7780001 24 22 12
0.1171912 -0.1941027 0.779 22 20 10
0.121735 -0.1945845 0.781 21 21 11
0.1266222 -0.195564 0.785 18 18 10
0.131552 -0.1965432 0.789 18 17 11
0.13618 -0.1970237 0.791 14 13 7
0.1411839 -0.1980021 0.795 12 13 7
0.1547058 -0.1986942 0.798 12 13 7
0.1596316 -0.1994224 0.8010001 11 12 6
0.1643843 -0.1999016 0.803 12 13 7
0.1691579 -0.2003806 0.8050001 15 14 8
0.1745987 -0.1831199 0.7360001 17 19 9
0.1756732 -0.1801178 0.724 22 22 12
0.1771133 -0.1776141 0.714 28 28 18
0.1792051 -0.1758573 0.707 26 28 18
0.1814797 -0.1743498 0.701 27 29 21
0.1839532 -0.1730916 0.696 29 31 21
0.1871815 -0.1725799 0.694 29 32 20
0.1892875 -0.1710742 0.688 32 35 23
0.1927311 -0.1708123 0.687 31 33 23
0.1958779 -0.1703022 0.6850001 34 34 24
0.1998771 -0.1705386 0.686 36 36 26
0.2038873 -0.1707755 0.687 32 31 25
0.2063976 -0.16977 0.683 33 32 26
0.2100953 -0.1697596 0.683 35 34 28
0.2141065 -0.1699984 0.684 35 34 28
0.217492 -0.1697408 0.683 33 33 23
0.2224866 -0.1707265 0.687 37 37 27
0.2262081 -0.170719 0.687 35 35 25
0.2312692 -0.1717063 0.691 31 31 21
0.2367147 -0.1729428 0.696 32 32 22
0.2415244 -0.1736833 0.6990001 31 31 21
0.2470698 -0.1749217 0.7040001 32 34 26
0.2533834 -0.176658 0.711 45 50 46
0.2623072 -0.1801347 0.725 132 136 136
0.2728535 -0.1846063 0.743 172 176 178
0.259374 -0.1729291 0.696 188 189 193
0.2544601 -0.1672162 0.673 197 198 204
0.245833 -0.157036 0.632 191 192 196
-0.2277389 -0.2637007 1.037 51 54 50
-0.2195483 -0.2606729 1.025 39 43 36
-0.212322 -0.2586619 1.017 31 35 28
-0.2061982 -0.2579224 1.014 28 30 22
-0.2005018 -0.2576915 1.013 23 25 15
-0.1948151 -0.2574605 1.012 22 25 13
-0.1887641 -0.2567204 1.009 19 19 9
-0.1832895 -0.2567435 1.009 17 17 7
-0.1786949 -0.2580387 1.014 17 17 9
-0.1731908 -0.2580613 1.014 19 16 9
-0.167851 -0.2583383 1.015 18 18 10
-0.162979 -0.2593786 1.019 15 14 8
-0.1575989 -0.259655 1.02 13 12 6
-0.1523558 -0.2601856 1.022 12 13 7
-0.1469461 -0.2604613 1.023 12 13 7
-0.1413862 -0.2604819 1.023 20 22 14
-0.1205565 -0.2312178 0.9080001 45 46 40
-0.1111629 -0.2223219 0.873 43 47 40
-0.1051963 -0.2197913 0.863 32 36 29
-0.09933769 -0.2172598 0.853 30 32 24
-0.09347594 -0.2144727 0.8420001 33 33 25
-0.08752188 -0.2111752 0.8290001 30 32 22
-0.08220914 -0.2091505 0.821 29 32 20
-0.07745618 -0.2083988 0.818 25 27 17
-0.07255664 -0.2071368 0.813 26 27 15
-0.06787843 -0.2063837 0.8100001 27 27 17
-0.06315388 -0.2053751 0.8060001 26 29 17
-0.05832644 -0.203856 0.8 25 26 14
-0.05383362 -0.2033556 0.798 22 22 12
-0.04936204 -0.2028544 0.7960001 27 28 16
-0.04479861 -0.2018428 0.7920001 24 25 13
-0.04032942 -0.2010853 0.789 23 26 14
-0.0360295 -0.2010918 0.789 23 25 15
-0.03168897 -0.2008425 0.788 24 26 16
-0.02728949 -0.2000829 0.785 26 28 20
-0.02292241 -0.1993225 0.7820001 28 29 23
-0.01861165 -0.1988162 0.78 27 29 21
-0.01434091 -0.1985641 0.779 25 25 17
-0.01006796 -0.1980564 0.777 27 27 17
-0.005839223 -0.1983127 0.7780001 30 31 19
-0.00159541 -0.1980584 0.777 24 26 16
0.002637516 -0.1978034 0.776 26 26 16
0.006850658 -0.1972928 0.774 27 27 17
0.01107052 -0.1972913 0.774 27 28 16
0.01531002 -0.1975439 0.775 26 29 17
0.01956026 -0.1977959 0.776 28 30 20
0.02375987 -0.1975373 0.775 30 30 22
0.02791221 -0.1970232 0.7730001 24 26 18
0.03212556 -0.1970181 0.7730001 22 25 13
0.03633858 -0.1970124 0.7730001 23 24 12
0.04060367 -0.1972608 0.774 20 20 10
0.04487922 -0.1975085 0.775 17 17 7
0.0490385 -0.1972459 0.774 19 19 9
0.05332398 -0.1974923 0.775 17 19 9
0.05739706 -0.1969736 0.7730001 21 24 12
0.06176655 -0.1974736 0.775 25 25 17
0.06607206 -0.197718 0.776 26 26 18
0.07047842 -0.1982167 0.7780001 29 29 19
0.0747138 -0.1982052 0.7780001 25 27 19
0.07894845 -0.1981932 0.7780001 28 30 20
0.08286162 -0.1974164 0.775 28 30 20
0.0871908 -0.197658 0.776 24 26 16
0.09129448 -0.1973897 0.775 25 27 19
0.09550972 -0.1973757 0.775 24 24 14
0.09972411 -0.1973612 0.775 23 23 13
0.10434 -0.1981102 0.7780001 23 24 12
0.1088481 -0.198604 0.78 25 23 13
0.1129421 -0.1983337 0.779 20 17 10
0.1173252 -0.1985721 0.78 23 18 11
0.1218741 -0.1990647 0.7820001 17 14 7
0.127089 -0.2005751 0.788 17 16 10
0.1317013 -0.2010669 0.79 10 11 5
0.1361622 -0.2013038 0.791 12 13 7
0.1408107 -0.201795 0.793 15 16 10
0.155075 -0.2035215 0.8 13 12 6
0.1594137 -0.203503 0.8 15 14 8
0.1645703 -0.2045019 0.804 11 12 6
0.1695594 -0.2052463 0.807 15 14 8
0.1755309 -0.1881213 0.74 20 21 9
0.1766276 -0.1850545 0.728 20 22 12
0.1775938 -0.1819885 0.716 16 18 8
0.1796968 -0.1801941 0.7090001 17 19 9
0.1814649 -0.178146 0.701 17 19 9
0.1842032 -0.1771152 0.697 17 19 9
0.1868979 -0.1760848 0.693 23 25 15
0.1898244 -0.1753092 0.6900001 29 32 20
0.1929987 -0.1747881 0.688 27 30 18
0.1955796 -0.1737595 0.684 31 32 20
0.1992826 -0.1737477 0.684 32 32 22
0.2023923 -0.1732285 0.682 30 30 20
0.2057828 -0.1729639 0.6810001 31 29 19
0.2097779 -0.1732079 0.682 32 32 22
0.2134713 -0.1731986 0.682 35 36 24
0.2171652 -0.1731901 0.682 33 33 23
0.2224789 -0.1744521 0.687 35 35 25
0.2262013 -0.1744451 0.687 33 33 25
0.2309286 -0.1752008 0.6900001 37 39 31
0.2367097 -0.176719 0.696 28 30 22
0.2418658 -0.1777304 0.7 23 27 19
0.2477686 -0.1792505 0.706 21 27 19
0.2537377 -0.1807717 0.712 36 43 39
0.2604973 -0.1828017 0.72 111 118 117
0.2717521 -0.1878797 0.74 160 166 169
0.2642203 -0.1800105 0.7090001 198 201 207
0.258622 -0.1736658 0.684 194 195 201
0.271931 -0.1800172 0.7090001 194 195 201
0.246227 -0.1607255 0.633 196 195 201
0.2719185 -0.172674 0.68 197 192 196
-0.2268368 -0.2682742 1.033 54 57 53
-0.2186681 -0.265181 1.021 33 37 30
-0.2118811 -0.2636459 1.015 32 34 24
-0.2063782 -0.2636691 1.015 28 30 20
-0.2004785 -0.2631727 1.013 27 27 17
-0.1945994 -0.2626762 1.011 25 26 14
-0.1889282 -0.2624394 1.01 21 22 10
-0.1832667 -0.2622024 1.009 17 17 7
-0.1783197 -0.2630046 1.012 18 18 8
-0.1731684 -0.2635469 1.014 16 16 8
-0.1681595 -0.2643489 1.017 14 13 7
-0.1627971 -0.2646309 1.018 15 14 8
-0.1575773 -0.2651725 1.02 13 12 6
-0.1526327 -0.2662337 1.024 13 14 8
-0.1470689 -0.2662547 1.024 13 14 8
-0.1419186 -0.2670553 1.027 23 25 15
-0.1250525 -0.2449708 0.942 47 48 42
-0.1114011 -0.2275638 0.8750001 41 45 38
-0.1049369 -0.2239387 0.8610001 36 40 33
-0.09943909 -0.2221333 0.854 30 31 25
-0.09379462 -0.219807 0.845 29 28 22
-0.08771945 -0.216179 0.831 32 32 24
-0.08249664 -0.2143711 0.8240001 29 31 21
-0.07753864 -0.2130829 0.8190001 30 30 20
-0.07254507 -0.2115336 0.813 26 27 15
-0.06769996 -0.2102438 0.808 23 26 14
-0.06314366 -0.209734 0.8060001 24 25 13
-0.05831693 -0.2081825 0.8 23 24 12
-0.05375734 -0.2074109 0.7970001 23 26 14
-0.04935389 -0.2071591 0.7960001 24 27 15
-0.04473462 -0.2058656 0.791 26 29 17
-0.04047601 -0.206133 0.7920001 25 28 16
-0.03602346 -0.2053585 0.789 25 27 17
-0.03156302 -0.2043231 0.785 22 25 13
-0.02731963 -0.2045883 0.786 20 22 14
-0.02288922 -0.2032911 0.781 23 25 17
-0.01858464 -0.202774 0.779 24 26 16
-0.01435688 -0.2030371 0.78 28 28 18
-0.0100792 -0.2025186 0.7780001 23 24 12
-0.005838227 -0.2025199 0.7780001 23 24 12
-0.001597191 -0.2025206 0.7780001 24 27 15
0.002637067 -0.2019999 0.776 28 28 18
0.006849491 -0.2014785 0.774 29 29 21
0.01106864 -0.2014769 0.774 26 26 16
0.01528767 -0.2014747 0.774 26 29 17
0.01948133 -0.2012114 0.7730001 27 30 18
0.02375585 -0.2017284 0.775 28 29 17
0.0279797 -0.201724 0.775 26 26 16
0.03220327 -0.2017189 0.775 24 24 14
0.0363795 -0.2014529 0.774 22 22 12
0.0407018 -0.201967 0.776 21 21 11
0.04487178 -0.2016996 0.775 20 20 10
0.04909376 -0.2016919 0.775 24 24 14
0.05331524 -0.2016835 0.775 24 26 16
0.05746195 -0.2014142 0.774 29 31 21
0.06175658 -0.2016648 0.775 29 29 19
0.06606148 -0.2019148 0.776 29 29 19
0.07028607 -0.2019039 0.776 34 35 23
0.07460602 -0.2021527 0.777 27 29 19
0.07853031 -0.2013602 0.774 28 28 18
0.08274194 -0.2013477 0.774 25 26 14
0.08717749 -0.201855 0.776 29 30 18
0.09116293 -0.2013212 0.774 24 25 13
0.09549548 -0.2015674 0.775 26 24 13
0.09983809 -0.201813 0.776 22 20 10
0.1043249 -0.2023183 0.7780001 21 21 11
0.1088325 -0.202823 0.78 20 20 12
0.1133611 -0.2033274 0.7820001 17 17 9
0.1176097 -0.2033112 0.7820001 16 13 7
0.122325 -0.2040747 0.785 18 15 9
0.127072 -0.2048378 0.788 16 15 9
0.1313506 -0.2048207 0.788 13 14 8
0.1359725 -0.2053231 0.79 13 12 6
0.1406154 -0.2058253 0.7920001 13 12 6
0.145462 -0.2065871 0.795 16 15 9
0.150152 -0.2070888 0.7970001 13 12 6
0.1550566 -0.2078501 0.8 14 13 7
0.1593953 -0.2078318 0.8 13 12 6
0.1643471 -0.2085928 0.803 13 12 6
0.169961 -0.2101328 0.809 15 14 8
0.1749926 -0.2108935 0.812 15 17 9
0.180277 -0.2119139 0.816 22 24 14
0.1799455 -0.2064423 0.795 23 26 14
0.1770681 -0.1983752 0.7640001 20 20 10
0.1764632 -0.1931657 0.744 21 22 10
0.176369 -0.1887361 0.7270001 22 23 11
0.1775783 -0.185865 0.716 24 24 14
0.179175 -0.1835138 0.707 21 23 13
0.1814505 -0.181942 0.701 16 18 8
0.1839249 -0.1806303 0.696 19 19 9
0.1871541 -0.1800977 0.694 20 20 10
0.1906366 -0.1798251 0.693 16 16 6
0.1929863 -0.1785152 0.688 17 17 7
0.1964255 -0.1782437 0.687 15 17 7
0.1995627 -0.1777134 0.6850001 22 22 12
0.2029751 -0.1774432 0.684 23 24 12
0.2057727 -0.1766548 0.6810001 28 27 13
0.209461 -0.1766454 0.6810001 29 28 12
0.2128366 -0.1763773 0.68 30 31 19
0.2165205 -0.1763694 0.68 32 32 22
0.2218242 -0.1776591 0.6850001 30 32 24
0.2261951 -0.1781715 0.687 29 31 23
0.2305886 -0.1786847 0.689 35 37 29
0.2353449 -0.1794582 0.692 39 43 35
0.2411714 -0.1810107 0.698 42 48 40
0.2488191 -0.1838608 0.7090001 95 103 96
0.258013 -0.1877492 0.724 107 115 108
0.2662861 -0.1908609 0.7360001 118 125 124
0.2728551 -0.1926772 0.743 158 161 167
0.2642227 -0.1838625 0.7090001 201 202 208
0.2225044 -0.148347 0.572 50 43 44
-0.2279117 -0.2685393 1.013 61 64 60
-0.2270331 -0.2741293 1.034 55 59 52
-0.218645 -0.2707057 1.021 32 36 28
-0.211858 -0.2691377 1.015 30 35 23
-0.2059485 -0.2686302 1.013 32 35 23
-0.2002576 -0.2683879 1.012 25 27 17
-0.1939992 -0.2673498 1.008 26 27 15
-0.1885313 -0.2673724 1.008 24 25 13
-0.1836073 -0.2681908 1.011 19 19 9
-0.1781211 -0.2682132 1.011 20 17 10
-0.1731461 -0.2690313 1.014 18 18 10
-0.1679721 -0.269584 1.016 12 13 7
-0.1624556 -0.2696058 1.016 13 14 8
-0.1575558 -0.2706887 1.02 14 13 7
-0.1527606 -0.2720369 1.025 15 14 8
-0.1473355 -0.2723231 1.026 15 15 7
-0.1418984 -0.272609 1.027 28 30 20
-0.1307419 -0.2614795 0.9850001 50 54 47
-0.1126577 -0.2349501 0.8850001 36 40 33
-0.1044338 -0.2275323 0.8570001 34 39 28
-0.09907487 -0.2259544 0.851 29 33 25
-0.09366936 -0.2241103 0.844 25 27 19
-0.08802257 -0.2214688 0.8340001 26 28 18
-0.08258392 -0.2190919 0.825 28 30 20
-0.07743179 -0.2172453 0.818 27 29 19
-0.07253358 -0.2159292 0.813 27 30 18
-0.06785668 -0.2151435 0.8100001 23 26 12
-0.06329014 -0.2146228 0.808 26 27 15
-0.05859901 -0.2135701 0.804 28 29 15
-0.05388343 -0.2122511 0.799 26 29 17
-0.04946976 -0.2119939 0.798 25 27 17
-0.04484032 -0.2106733 0.793 22 24 14
-0.04031599 -0.2096177 0.789 28 28 18
-0.03597179 -0.2093583 0.788 25 28 16
-0.03159793 -0.2088326 0.786 30 33 21
-0.02724554 -0.2083062 0.784 26 26 16
-0.02285606 -0.2072476 0.78 23 25 15
-0.01855764 -0.2067197 0.7780001 25 25 15
-0.01433604 -0.2069881 0.779 24 25 13
-0.01009044 -0.2069902 0.779 24 27 15
-0.005814726 -0.2059287 0.775 23 26 14
-0.001590761 -0.2059293 0.775 25 28 16
0.002633221 -0.2059292 0.775 27 27 17
0.006848327 -0.2056627 0.774 31 28 21
0.01108106 -0.2059269 0.775 31 31 21
0.01528508 -0.205659 0.774 28 30 20
0.01947804 -0.2053903 0.7730001 24 27 15
0.02362925 -0.2048553 0.771 24 25 13
0.02790281 -0.2053823 0.7730001 18 19 7
0.03211479 -0.2053774 0.7730001 18 18 8
0.03632644 -0.2053716 0.7730001 16 18 8
0.04069505 -0.2061622 0.776 23 26 14
0.0447486 -0.2053582 0.7730001 26 26 16
0.04902236 -0.2056161 0.774 30 32 24
0.05316899 -0.2053422 0.7730001 26 28 20
0.05745264 -0.2055988 0.774 28 30 22
0.06174665 -0.2058549 0.775 29 29 19
0.06588072 -0.205579 0.774 28 30 20
0.07009383 -0.2055683 0.774 26 28 20
0.07430631 -0.2055569 0.774 27 29 19
0.07841668 -0.2052795 0.7730001 26 29 17
0.08272924 -0.2055327 0.774 20 23 11
0.08682729 -0.2052542 0.7730001 24 24 14
0.09114925 -0.2055063 0.774 22 22 12
0.09560452 -0.2060235 0.776 20 20 10
0.1000808 -0.2065401 0.7780001 18 18 8
0.104712 -0.2073216 0.781 17 17 9
0.1089566 -0.2073064 0.781 18 18 10
0.1134902 -0.2078217 0.7830001 17 17 9
0.1180447 -0.2083365 0.785 15 15 7
0.1223084 -0.2083201 0.785 16 15 9
0.1268938 -0.2088342 0.7870001 12 13 7
0.1310001 -0.2085519 0.786 11 12 6
0.135783 -0.2093308 0.789 16 15 9
0.1407753 -0.2103745 0.793 21 18 11
0.1456271 -0.2111527 0.7960001 18 15 8
0.150134 -0.2114002 0.7970001 18 18 10
0.1548447 -0.2119127 0.799 12 13 7
0.1595763 -0.2124251 0.8010001 11 12 6
0.1645335 -0.2132025 0.804 12 13 7
0.1695225 -0.2139798 0.807 11 12 6
0.1747588 -0.2150222 0.811 13 14 8
0.1804796 -0.2165947 0.817 19 21 11
0.1792488 -0.2099494 0.7920001 20 25 11
0.176356 -0.201715 0.761 24 27 15
0.176447 -0.1971927 0.744 26 27 13
0.1761109 -0.1924064 0.726 26 29 15
0.1775633 -0.1897412 0.716 27 30 16
0.1789071 -0.1870767 0.706 25 28 16
0.1814364 -0.1857377 0.701 27 27 17
0.1841756 -0.1846642 0.697 28 29 17
0.187141 -0.1838563 0.694 27 27 17
0.1903489 -0.1833138 0.692 24 22 12
0.1932547 -0.182507 0.689 22 22 12
0.1955563 -0.1811711 0.684 15 17 7
0.1992605 -0.1811603 0.684 13 15 7
0.2035584 -0.1816797 0.686 18 18 8
0.2069718 -0.1814052 0.6850001 18 16 6
0.2106824 -0.1813963 0.6850001 22 20 9
0.2140806 -0.1811234 0.684 24 25 13
0.2171501 -0.1805864 0.682 26 28 18
0.2205225 -0.1803151 0.6810001 28 30 22
0.2245433 -0.1805743 0.682 29 33 25
0.2292453 -0.1813639 0.6850001 30 34 26
0.2336408 -0.1818897 0.687 36 40 33
0.2394412 -0.1834755 0.693 43 49 42
0.24601 -0.1855919 0.701 55 62 58
0.2548053 -0.1892979 0.715 148 155 154
0.2670106 -0.1953879 0.738 164 170 172
0.2717556 -0.1959195 0.74 190 191 197
0.2597541 -0.1845382 0.697 191 192 196
0.2476651 -0.1734226 0.655 188 189 195
0.2642714 -0.1824306 0.689 193 194 200
-0.2265711 -0.2791829 1.032 49 53 46
-0.2188364 -0.2765001 1.022 34 38 30
-0.2116266 -0.2743582 1.014 25 31 23
-0.2051127 -0.2730277 1.009 28 32 24
-0.2002349 -0.273862 1.012 29 31 23
-0.194554 -0.2736138 1.011 22 24 14
-0.1888829 -0.2733655 1.01 20 22 12
-0.1835849 -0.2736585 1.011 18 18 8
-0.1784512 -0.274222 1.013 18 15 8
-0.1732948 -0.2747855 1.015 15 15 7
-0.1681157 -0.2753487 1.017 14 13 7
-0.1627539 -0.275641 1.018 12 13 7
-0.1576891 -0.2764746 1.021 12 13 7
-0.1530377 -0.2781204 1.027 13 12 6
-0.1474585 -0.2781411 1.027 16 16 8
-0.1424309 -0.2792446 1.031 29 31 23
-0.1319175 -0.2692423 0.994 46 47 43
-0.115696 -0.2462357 0.909 30 37 26
-0.1042966 -0.2318942 0.8560001 33 38 27
-0.09859444 -0.229471 0.8470001 29 34 23
-0.09354424 -0.2284017 0.8430001 24 29 18
-0.08843122 -0.2270607 0.8380001 27 29 21
-0.08277132 -0.2240932 0.827 25 27 19
-0.07741971 -0.2216668 0.818 29 31 21
-0.07252215 -0.2203236 0.813 27 30 18
-0.06792966 -0.2197926 0.811 28 30 20
-0.06320169 -0.218719 0.807 27 27 19
-0.05858954 -0.2179156 0.804 23 25 15
-0.05400953 -0.2171116 0.8010001 28 33 22
-0.04927572 -0.2154936 0.795 27 29 21
-0.04483293 -0.2149592 0.793 27 29 21
-0.04051368 -0.2149662 0.793 31 31 23
-0.03601146 -0.2138882 0.789 28 30 20
-0.03159266 -0.2130805 0.786 25 27 17
-0.02717148 -0.2120011 0.7820001 25 27 17
-0.02288151 -0.2117341 0.781 27 29 19
-0.01855452 -0.2109243 0.7780001 23 23 15
-0.01431523 -0.2109271 0.7780001 26 26 18
-0.01006284 -0.210658 0.777 26 26 18
-0.005821244 -0.2103882 0.776 29 31 23
-0.001590492 -0.2101177 0.775 28 33 22
0.002625981 -0.2095754 0.7730001 28 30 20
0.006847169 -0.2098457 0.774 30 30 22
0.01100771 -0.2087597 0.77 28 25 18
0.01520352 -0.2087575 0.77 26 26 16
0.01944957 -0.2092969 0.772 24 25 13
0.02368657 -0.2095643 0.7730001 19 20 8
0.02782596 -0.2090178 0.771 19 19 9
0.03206789 -0.2092839 0.772 24 24 14
0.03627342 -0.2092783 0.772 26 26 18
0.04058345 -0.2098141 0.774 29 29 19
0.04474124 -0.209536 0.7730001 28 28 18
0.04895103 -0.2095284 0.7730001 26 28 20
0.05316035 -0.2095201 0.7730001 28 30 20
0.05736918 -0.2095112 0.7730001 31 31 21
0.06157745 -0.2095017 0.7730001 30 31 19
0.06578515 -0.2094915 0.7730001 27 27 17
0.06990173 -0.2092099 0.772 26 28 20
0.07391079 -0.2086567 0.77 20 24 16
0.07820173 -0.2089159 0.771 19 21 11
0.08260974 -0.2094455 0.7730001 18 20 10
0.08692651 -0.2097037 0.774 18 20 10
0.09137116 -0.2102322 0.776 17 19 11
0.09583683 -0.2107603 0.7780001 20 20 12
0.1003235 -0.2112877 0.78 14 16 8
0.104563 -0.2112731 0.78 14 13 7
0.1089412 -0.2115288 0.781 15 15 7
0.1133295 -0.2117842 0.7820001 16 16 8
0.1177279 -0.2120392 0.7830001 15 15 7
0.1221362 -0.2122938 0.784 16 16 8
0.1268771 -0.2130897 0.7870001 17 17 9
0.1311498 -0.213073 0.7870001 16 18 10
0.1357659 -0.2135975 0.789 19 19 9
0.1404028 -0.2141217 0.791 18 18 8
0.1454266 -0.2151871 0.795 23 21 11
0.1503046 -0.2159815 0.798 16 16 8
0.1542455 -0.2154225 0.7960001 15 17 9
0.1595583 -0.2167579 0.8010001 13 14 8
0.1645155 -0.2175519 0.804 12 13 7
0.1692944 -0.2180752 0.8060001 14 15 9
0.1747408 -0.2194101 0.811 15 16 10
0.1802407 -0.2207449 0.816 20 22 12
0.1765158 -0.2109892 0.78 24 27 15
0.1747175 -0.20394 0.754 31 34 22
0.1745341 -0.1990558 0.7360001 31 32 18
0.1756106 -0.1957952 0.724 28 31 17
0.1768047 -0.1928059 0.7130001 31 34 20
0.1786395 -0.1906284 0.705 30 31 19
0.1811639 -0.1892628 0.7 26 29 17
0.1833697 -0.1876275 0.694 27 28 16
0.1860498 -0.1865334 0.6900001 28 29 17
0.1892366 -0.1859807 0.688 28 29 17
0.1924018 -0.1854285 0.686 26 27 15
0.1952595 -0.1846067 0.683 21 24 12
0.1995415 -0.1851369 0.6850001 20 22 12
0.2035487 -0.1853974 0.686 19 19 11
0.2069629 -0.1851181 0.6850001 19 19 11
0.2103666 -0.1848396 0.684 17 17 9
0.2143861 -0.1851023 0.6850001 17 17 9
0.2174619 -0.1845552 0.683 18 18 10
0.2211644 -0.1845493 0.683 24 24 16
0.2245385 -0.1842742 0.682 23 25 17
0.2295761 -0.1853511 0.686 31 33 25
0.2332979 -0.1853481 0.686 28 29 23
0.2384029 -0.186427 0.6900001 36 37 31
0.2442546 -0.1880473 0.696 39 45 38
0.2505294 -0.1899389 0.703 73 80 77
0.2597764 -0.1939934 0.7180001 149 153 155
0.2655158 -0.1953473 0.723 196 195 201
0.2728024 -0.1977835 0.7320001 202 201 207
0.2609048 -0.1864408 0.6900001 195 196 202
-0.2233689 -0.2739836 0.993 56 59 55
-0.2256707 -0.2836625 1.028 47 50 46
-0.2181718 -0.281201 1.019 37 41 34
-0.2118131 -0.2801192 1.015 33 35 27
-0.2057002 -0.2793133 1.012 31 33 25
-0.2000148 -0.2790593 1.011 27 29 21
-0.1943393 -0.2788053 1.01 25 27 17
-0.1894217 -0.2796555 1.013 24 24 14
-0.1833813 -0.2788493 1.01 21 19 9
-0.178077 -0.2791472 1.011 18 15 8
-0.1732731 -0.2802733 1.015 16 16 8
-0.1680941 -0.2808471 1.017 15 14 8
-0.1627326 -0.2811445 1.018 12 13 7
-0.1572048 -0.2811655 1.018 13 14 8
-0.152421 -0.2825672 1.023 13 15 7
-0.1477253 -0.2842449 1.029 20 22 14
-0.142411 -0.2848175 1.031 33 37 30
-0.1301737 -0.2710234 0.9810001 46 47 41
-0.1168246 -0.2536353 0.918 33 37 30
-0.1052559 -0.2387311 0.864 30 34 26
-0.09846345 -0.2337723 0.846 30 35 24
-0.09353021 -0.2329575 0.8430001 27 29 19
-0.0884178 -0.2315894 0.8380001 23 25 15
-0.08325899 -0.2299442 0.832 27 27 17
-0.07778623 -0.2271927 0.822 26 28 20
-0.0726 -0.2249932 0.814 31 33 23
-0.06791894 -0.224175 0.811 28 30 22
-0.06319162 -0.2230796 0.807 29 31 23
-0.05858016 -0.22226 0.804 31 33 25
-0.05413565 -0.2219926 0.803 27 29 21
-0.04926771 -0.2197893 0.795 32 34 24
-0.04476908 -0.2189675 0.7920001 28 30 20
-0.04045594 -0.2189744 0.7920001 26 28 20
-0.03600551 -0.2181512 0.789 26 28 18
-0.0316678 -0.2178803 0.788 25 28 16
-0.02727118 -0.2170557 0.785 27 30 18
-0.02290699 -0.2162304 0.7820001 24 29 18
-0.0185991 -0.2156808 0.78 27 29 21
-0.01429443 -0.214854 0.777 26 28 18
-0.0100482 -0.2145795 0.776 32 33 19
-0.005812765 -0.2143043 0.775 30 31 19
-0.001588172 -0.2140284 0.774 30 33 21
0.002625539 -0.2137518 0.7730001 30 32 22
0.006828328 -0.2134745 0.772 21 26 15
0.01102015 -0.2131965 0.771 22 24 14
0.01524045 -0.2134708 0.772 23 23 13
0.01939593 -0.2129149 0.77 25 26 14
0.02368262 -0.2137408 0.7730001 20 21 9
0.02785742 -0.21346 0.772 23 23 13
0.03210411 -0.2137316 0.7730001 27 27 19
0.03631442 -0.213726 0.7730001 28 28 20
0.04057679 -0.2139961 0.774 29 31 23
0.04473394 -0.2137127 0.7730001 29 31 21
0.04894309 -0.2137051 0.7730001 29 32 20
0.05315179 -0.2136969 0.7730001 30 31 19
0.05728578 -0.2134116 0.772 28 28 18
0.06140837 -0.2131257 0.771 27 27 17
0.06560462 -0.2131157 0.771 24 24 14
0.06980029 -0.2131052 0.771 22 22 12
0.07389937 -0.2128177 0.77 22 24 14
0.07829119 -0.2133588 0.772 21 21 11
0.08259724 -0.213623 0.7730001 17 17 7
0.0870258 -0.214163 0.775 20 20 12
0.0914754 -0.2147024 0.777 17 17 9
0.09569969 -0.2146888 0.777 14 14 6
0.09992325 -0.2146747 0.777 13 15 7
0.1041461 -0.2146602 0.777 13 15 7
0.108926 -0.2157504 0.781 16 16 8
0.1130241 -0.2154588 0.78 18 18 10
0.1175616 -0.2159957 0.7820001 19 19 9
0.1219643 -0.2162559 0.7830001 17 17 7
0.126377 -0.2165159 0.784 17 17 9
0.1309665 -0.2170518 0.786 19 19 9
0.1357489 -0.2178635 0.789 21 21 11
0.1402082 -0.2181227 0.79 20 20 10
0.1450434 -0.2189339 0.793 19 19 9
0.1499104 -0.2197448 0.7960001 21 21 13
0.1546155 -0.2202796 0.798 16 16 8
0.1593415 -0.2208142 0.8 14 15 9
0.164907 -0.2224527 0.8060001 13 12 6
0.1694868 -0.2227111 0.807 15 14 8
0.1747231 -0.2237975 0.811 16 18 10
0.1775727 -0.2218485 0.804 21 21 11
0.17401 -0.2121746 0.7690001 28 28 18
0.1733114 -0.2063648 0.748 27 27 19
0.1733332 -0.2016596 0.731 27 28 16
0.1748682 -0.1988863 0.721 31 32 18
0.1760466 -0.1958379 0.71 33 34 22
0.1781191 -0.1938934 0.703 30 31 17
0.1808919 -0.1927771 0.6990001 29 30 16
0.1833571 -0.1913855 0.694 29 30 16
0.185768 -0.1899945 0.689 27 30 16
0.189225 -0.1897072 0.688 26 29 17
0.1923908 -0.1891447 0.686 30 31 19
0.1952492 -0.1883072 0.683 24 27 15
0.1986579 -0.1880217 0.682 24 27 15
0.2029462 -0.188564 0.684 24 27 15
0.2066524 -0.1885556 0.684 24 25 13
0.2106666 -0.1888237 0.6850001 22 20 10
0.2143793 -0.1888168 0.6850001 17 17 9
0.217456 -0.1882595 0.683 19 19 11
0.2221308 -0.1890814 0.686 17 17 9
0.2268391 -0.1899041 0.689 16 16 8
0.230577 -0.1899009 0.689 17 17 9
0.2346562 -0.1901744 0.6900001 23 23 15
0.238402 -0.1901733 0.6900001 27 29 19
0.2439039 -0.1915515 0.6950001 32 36 28
0.2494618 -0.1929309 0.7 58 65 61
0.2590555 -0.1973434 0.716 140 144 144
0.2695597 -0.2023087 0.734 166 170 172
0.2560371 -0.1893596 0.687 199 198 204
0.2454082 -0.1788918 0.649 193 194 200
-0.2255974 -0.2821693 1.003 56 61 57
-0.2245514 -0.287817 1.023 43 49 42
-0.2177218 -0.2861504 1.017 32 38 30
-0.2115826 -0.2853277 1.014 36 38 30
-0.2056784 -0.2847865 1.012 33 35 27
-0.1999929 -0.2845267 1.011 30 32 22
-0.1943175 -0.2842669 1.01 24 29 18
-0.188652 -0.284007 1.009 17 22 11
-0.1833596 -0.28431 1.01 19 21 11
-0.1780555 -0.2846129 1.011 16 16 8
-0.173081 -0.2854788 1.014 16 16 8
-0.1677424 -0.2857815 1.015 16 15 9
-0.1628715 -0.2869287 1.019 14 15 9
-0.1578018 -0.2877942 1.022 12 13 7
-0.1525495 -0.2883778 1.024 17 16 10
-0.1478488 -0.2900878 1.03 21 20 14
-0.1425294 -0.2906708 1.032 36 37 31
-0.1292267 -0.2743529 0.974 49 50 46
-0.1159173 -0.256624 0.9110001 35 39 32
-0.106946 -0.2473437 0.878 30 34 26
-0.09879813 -0.2391887 0.849 34 38 30
-0.09351632 -0.2375123 0.8430001 29 31 21
-0.08851002 -0.2363988 0.839 25 26 14
-0.08344647 -0.2350029 0.8340001 28 28 18
-0.07843661 -0.2336062 0.8290001 26 28 20
-0.07312381 -0.2310817 0.8200001 26 29 17
-0.06807579 -0.2291199 0.813 28 29 17
-0.06333824 -0.2280029 0.809 29 30 18
-0.0586437 -0.2268852 0.8050001 31 31 21
-0.05399217 -0.2257667 0.8010001 28 28 18
-0.04932174 -0.2243656 0.7960001 28 28 18
-0.04481834 -0.2235276 0.793 29 30 18
-0.04044934 -0.2232526 0.7920001 25 27 17
-0.03595399 -0.2221313 0.788 26 29 17
-0.03162241 -0.2218549 0.7870001 27 30 18
-0.02726668 -0.2212959 0.785 27 30 18
-0.02284462 -0.2198905 0.78 29 31 21
-0.01854833 -0.2193301 0.7780001 27 29 21
-0.01427365 -0.218769 0.776 32 32 22
-0.01003357 -0.2184891 0.775 33 34 22
-0.005796797 -0.2179265 0.7730001 28 30 20
-0.001583804 -0.2176452 0.772 28 30 20
0.002628497 -0.218209 0.774 27 27 19
0.006827188 -0.2176443 0.772 23 25 17
0.01101832 -0.217361 0.771 19 21 11
0.01523792 -0.2176407 0.772 19 21 11
0.01939271 -0.217074 0.77 23 25 15
0.02364806 -0.2176343 0.772 24 26 16
0.02778066 -0.2170662 0.77 25 27 19
0.03201579 -0.2173432 0.771 26 28 20
0.0362615 -0.2176196 0.772 28 30 22
0.04046535 -0.2176133 0.772 31 32 26
0.04455311 -0.2170427 0.77 27 29 21
0.04868199 -0.2167533 0.7690001 26 28 18
0.0528683 -0.2167452 0.7690001 24 24 14
0.05712831 -0.2170184 0.77 23 23 13
0.06139871 -0.2172909 0.771 22 22 12
0.06567946 -0.2175628 0.772 20 21 9
0.06988002 -0.2175523 0.772 18 20 10
0.07398401 -0.2172595 0.771 18 18 10
0.07827932 -0.2175297 0.772 17 17 9
0.08279855 -0.218363 0.775 16 16 8
0.08701292 -0.2183504 0.775 19 19 11
0.09122662 -0.2183374 0.775 16 16 8
0.09556276 -0.2186057 0.776 19 19 11
0.09990905 -0.2188734 0.777 17 17 7
0.1043995 -0.2194225 0.779 21 21 11
0.1087715 -0.2196894 0.78 19 19 9
0.1130088 -0.2196743 0.78 23 23 13
0.117546 -0.2202222 0.7820001 21 19 9
0.1219483 -0.2204881 0.7830001 21 21 11
0.1261996 -0.2204722 0.7830001 18 20 10
0.13095 -0.2213006 0.786 22 22 12
0.1353882 -0.2215658 0.7870001 19 19 9
0.1401913 -0.2223937 0.79 18 20 10
0.1450263 -0.2232214 0.793 21 21 11
0.1498932 -0.2240489 0.7960001 19 16 9
0.1547919 -0.2248762 0.799 19 16 9
0.1593242 -0.2251406 0.8 14 13 7
0.1642759 -0.2259676 0.803 16 15 9
0.1698895 -0.2276389 0.809 12 11 5
0.1744904 -0.2279031 0.8100001 17 17 9
0.1731389 -0.2205713 0.784 26 26 16
0.1724102 -0.214366 0.762 29 29 21
0.1723693 -0.2092871 0.744 31 33 23
0.1726072 -0.2047717 0.728 30 32 22
0.1733989 -0.2011009 0.715 27 29 19
0.1750412 -0.1985561 0.706 30 30 20
0.1773459 -0.1968555 0.7 30 30 20
0.1806204 -0.1962804 0.698 28 29 17
0.1836091 -0.1954247 0.6950001 30 31 19
0.1868349 -0.1948507 0.693 29 29 19
0.189489 -0.193715 0.689 30 32 22
0.1923803 -0.1928611 0.686 24 29 17
0.1955252 -0.192289 0.684 25 30 18
0.19894 -0.1919988 0.683 25 30 19
0.2026411 -0.1919903 0.683 26 28 18
0.2060405 -0.1917015 0.682 27 27 17
0.2097371 -0.1916946 0.682 24 24 14
0.2140603 -0.1922507 0.684 26 26 16
0.2177692 -0.1922454 0.684 20 22 12
0.2221266 -0.1928032 0.686 19 21 11
0.2274943 -0.1942052 0.691 19 19 11
0.2315787 -0.1944838 0.692 17 17 9
0.2366955 -0.1956068 0.696 15 17 9
0.2401295 -0.1953256 0.6950001 22 24 14
0.244256 -0.1956078 0.696 22 26 18
0.2505334 -0.1975775 0.703 43 49 42
0.2590594 -0.2012348 0.716 123 130 129
0.2677289 -0.2048938 0.729 170 174 176
0.2579071 -0.1945009 0.692 191 192 198
-0.2307497 -0.2941905 1.026 53 57 50
-0.2247498 -0.2936377 1.024 41 47 40
-0.2172725 -0.2910776 1.015 33 37 29
-0.2113526 -0.290525 1.013 30 34 26
-0.2052506 -0.2896856 1.01 28 30 22
-0.1991803 -0.2888462 1.007 28 30 22
-0.193719 -0.2888673 1.007 23 25 15
-0.1886307 -0.2894621 1.009 20 22 12
-0.1835199 -0.2900569 1.011 20 20 10
-0.1783865 -0.2906518 1.013 18 18 10
-0.1728892 -0.2906727 1.013 17 17 9
-0.1678868 -0.2915543 1.016 15 14 8
-0.162691 -0.2921489 1.018 11 12 6
-0.157627 -0.2930302 1.021 14 15 9
-0.1528273 -0.2944854 1.026 20 19 13
-0.1481159 -0.2962274 1.032 28 27 21
-0.1419576 -0.2950987 1.028 45 46 40
-0.1289435 -0.2790413 0.9720001 47 50 46
-0.1157737 -0.2612588 0.91 35 36 30
-0.107905 -0.254384 0.886 33 35 27
-0.1000637 -0.2469336 0.86 30 32 22
-0.09328076 -0.2414919 0.841 31 33 23
-0.08807496 -0.2397823 0.835 26 29 17
-0.08323383 -0.2389334 0.832 23 23 13
-0.07833011 -0.2377969 0.8280001 25 25 15
-0.07329091 -0.2360851 0.822 23 25 15
-0.0682327 -0.2340855 0.8150001 20 23 11
-0.0635632 -0.233234 0.812 23 26 12
-0.05870731 -0.2315201 0.8060001 27 28 16
-0.0541184 -0.2306672 0.803 24 26 16
-0.04931387 -0.2286645 0.7960001 28 28 18
-0.04481114 -0.2278102 0.793 28 29 17
-0.04044281 -0.2275297 0.7920001 25 28 16
-0.03594815 -0.2263867 0.788 26 29 17
-0.03161725 -0.2261049 0.7870001 27 30 18
-0.0271233 -0.2243859 0.781 29 31 21
-0.02287015 -0.2243899 0.781 29 32 20
-0.01856911 -0.2238187 0.779 29 30 18
-0.01425291 -0.2226721 0.775 27 28 14
-0.01001897 -0.2223868 0.774 24 24 14
-0.005803335 -0.2223881 0.774 26 26 18
-0.001585593 -0.2221014 0.7730001 22 22 12
0.002624666 -0.2221013 0.7730001 23 21 11
0.006834902 -0.2221005 0.7730001 22 22 12
0.01103078 -0.2218117 0.772 24 24 14
0.01519594 -0.2212349 0.77 25 27 19
0.0194147 -0.2215194 0.771 26 28 20
0.02367481 -0.2220905 0.7730001 27 28 22
0.02774005 -0.2209371 0.7690001 28 30 22
0.03188602 -0.2206449 0.768 28 30 22
0.03620866 -0.2215013 0.771 28 30 22
0.04030161 -0.2209206 0.7690001 24 25 19
0.04448812 -0.2209138 0.7690001 25 27 19
0.04861094 -0.2206191 0.768 24 24 16
0.05279119 -0.2206111 0.768 24 24 16
0.05704516 -0.2208898 0.7690001 25 22 15
0.06138915 -0.221455 0.771 20 20 12
0.06566932 -0.2217325 0.772 18 18 8
0.06986932 -0.2217221 0.772 17 17 7
0.07406876 -0.2217112 0.772 15 15 7
0.0782676 -0.2216998 0.772 17 17 9
0.08278628 -0.2225494 0.775 16 16 8
0.08688793 -0.2222499 0.774 18 18 10
0.09109575 -0.222237 0.774 19 19 11
0.09554914 -0.222798 0.776 19 21 11
0.09976646 -0.2227843 0.776 19 22 10
0.1042511 -0.2233443 0.7780001 22 22 12
0.1087568 -0.223904 0.78 23 23 13
0.1129937 -0.2238891 0.78 21 21 11
0.1173802 -0.224161 0.781 23 21 10
0.1217769 -0.2244326 0.7820001 18 18 8
0.1263449 -0.2249909 0.784 18 20 10
0.1311004 -0.2258359 0.7870001 18 20 10
0.1357158 -0.2263936 0.789 17 19 11
0.1405296 -0.227238 0.7920001 16 18 10
0.1453754 -0.2280822 0.795 17 17 9
0.1500647 -0.2286394 0.7970001 18 18 10
0.1545813 -0.2289095 0.798 18 15 9
0.1597056 -0.2300402 0.802 14 13 7
0.1644635 -0.2305971 0.804 13 12 6
0.1705024 -0.2328747 0.812 14 13 7
0.1697348 -0.2259755 0.788 23 25 15
0.1676023 -0.2176437 0.7590001 32 33 27
0.1680962 -0.2130407 0.743 33 35 27
0.1686479 -0.2087253 0.728 32 37 26
0.1706963 -0.2064177 0.72 31 33 23
0.1726577 -0.2041106 0.712 33 35 27
0.1750281 -0.2023775 0.706 31 31 23
0.1773332 -0.200645 0.7 27 29 21
0.179832 -0.1991998 0.6950001 25 27 17
0.1833333 -0.1989016 0.694 23 25 15
0.1862846 -0.1980308 0.691 23 25 15
0.1889285 -0.196874 0.687 26 28 18
0.1918097 -0.1960045 0.684 25 28 16
0.1952302 -0.1957088 0.683 23 26 14
0.1992228 -0.1959869 0.684 24 24 14
0.2023367 -0.1954061 0.682 27 27 17
0.2063356 -0.1956856 0.683 27 29 19
0.2094235 -0.1951065 0.6810001 26 27 15
0.2128033 -0.1948147 0.68 30 30 20
0.2171281 -0.1953832 0.682 27 30 18
0.2224469 -0.1968122 0.687 17 22 10
0.2268334 -0.1973827 0.689 20 22 12
0.231912 -0.1985271 0.693 22 24 14
0.2377156 -0.2002457 0.6990001 21 21 11
0.2425491 -0.201106 0.702 23 25 17
0.2477677 -0.2022541 0.706 26 30 23
0.2530316 -0.2034034 0.71 83 90 87
0.2612354 -0.2068462 0.7220001 118 125 124
0.2692045 -0.210004 0.733 148 151 155
0.2605237 -0.2002707 0.6990001 195 196 202
-0.2296051 -0.2982803 1.021 58 61 57
-0.2247293 -0.2991768 1.024 42 48 41
-0.2170379 -0.2962752 1.014 38 42 35
-0.2104975 -0.2948345 1.009 33 34 28
-0.2050266 -0.2948549 1.009 29 28 22
-0.1989618 -0.2939987 1.006 23 23 15
-0.1936981 -0.2943115 1.007 24 24 14
-0.1887968 -0.2952089 1.01 21 21 11
-0.1833175 -0.2952296 1.01 19 19 9
-0.1778375 -0.2952501 1.01 18 18 10
-0.172698 -0.2958552 1.012 14 15 9
-0.1678663 -0.297045 1.016 12 13 7
-0.1628305 -0.2979423 1.019 11 12 6
-0.1579156 -0.2991318 1.023 14 13 7
-0.1532543 -0.3009062 1.029 17 17 9
-0.1485269 -0.3026803 1.035 32 32 22
-0.1408339 -0.2983126 1.02 47 49 41
-0.1256099 -0.27698 0.947 41 42 36
-0.1174113 -0.2699769 0.923 33 37 29
-0.1076463 -0.2585846 0.8840001 29 31 21
-0.1010964 -0.2542115 0.869 30 32 24
-0.09359997 -0.2469118 0.844 25 30 19
-0.08785114 -0.2437068 0.8330001 30 35 24
-0.08322151 -0.2434267 0.832 23 26 14
-0.07831836 -0.2422683 0.8280001 23 24 12
-0.07354727 -0.2414019 0.825 25 26 14
-0.06864082 -0.2399496 0.8200001 23 26 14
-0.06370994 -0.2382039 0.814 22 25 13
-0.05891666 -0.2367501 0.809 21 22 10
-0.05424469 -0.2355883 0.8050001 23 24 12
-0.04955386 -0.2341331 0.8 23 24 12
-0.04497353 -0.2329699 0.7960001 21 24 12
-0.04043636 -0.2318059 0.7920001 23 25 15
-0.03589677 -0.2303485 0.7870001 25 28 16
-0.03153181 -0.2297685 0.785 25 28 16
-0.02708418 -0.2283097 0.78 25 27 17
-0.02286644 -0.2286064 0.781 28 28 20
-0.01856609 -0.2280244 0.779 25 25 15
-0.01426897 -0.2271489 0.776 24 25 13
-0.01000439 -0.2262727 0.7730001 24 25 13
-0.005787393 -0.2259813 0.772 19 19 9
-0.001587384 -0.2265673 0.774 22 20 10
0.002617447 -0.2256891 0.771 21 21 11
0.006824942 -0.225981 0.772 23 24 12
0.01102898 -0.2259795 0.772 25 25 15
0.01519345 -0.225392 0.77 27 27 19
0.01941154 -0.2256819 0.771 29 29 21
0.02360972 -0.2256784 0.771 26 26 18
0.02769949 -0.2247962 0.768 30 30 22
0.03188088 -0.2247914 0.768 28 28 20
0.03601503 -0.2244933 0.767 22 24 14
0.04034758 -0.2253653 0.77 24 26 18
0.04448107 -0.2250659 0.7690001 20 22 14
0.04854 -0.2244732 0.767 21 21 11
0.05285166 -0.2250506 0.7690001 18 18 10
0.05703631 -0.2250421 0.7690001 18 15 8
0.0613797 -0.2256183 0.771 17 17 9
0.06557426 -0.2256087 0.771 18 18 10
0.06976829 -0.2255985 0.771 17 17 9
0.07415362 -0.2261729 0.7730001 17 17 7
0.07835741 -0.2261617 0.7730001 16 18 8
0.08245378 -0.2258574 0.772 22 22 12
0.08676317 -0.2261377 0.7730001 22 22 12
0.09131813 -0.2270027 0.776 21 23 13
0.09553573 -0.2269896 0.776 20 22 12
0.09988122 -0.2272686 0.777 20 22 12
0.1045049 -0.2281321 0.78 23 23 15
0.1088816 -0.2284103 0.781 22 22 14
0.1129788 -0.2281033 0.78 22 22 12
0.1175154 -0.2286733 0.7820001 21 21 11
0.1219172 -0.2289505 0.7830001 21 21 11
0.1261681 -0.2289351 0.7830001 18 20 10
0.1310845 -0.230089 0.7870001 18 20 10
0.1358717 -0.2309502 0.79 17 19 11
0.1406908 -0.2318112 0.793 17 19 11
0.1453589 -0.2323796 0.795 17 16 10
0.1498599 -0.2326557 0.7960001 14 13 7
0.1549522 -0.2338085 0.8 15 14 8
0.1602864 -0.2352534 0.8050001 14 13 7
0.1652651 -0.2361136 0.808 14 13 7
0.1704859 -0.2372661 0.812 14 13 7
0.1679958 -0.2279002 0.78 19 19 9
0.1664832 -0.2202886 0.754 22 22 12
0.1662718 -0.2147232 0.735 26 28 18
0.1670124 -0.2106195 0.721 28 31 19
0.1690233 -0.2082692 0.7130001 30 30 20
0.1714322 -0.2065037 0.707 33 34 22
0.173776 -0.2047387 0.701 36 36 26
0.1768145 -0.2038505 0.698 28 30 22
0.179303 -0.2023788 0.693 25 29 21
0.1814732 -0.2006158 0.687 26 28 18
0.1846568 -0.2000215 0.6850001 25 27 17
0.1880937 -0.1997197 0.684 24 24 14
0.1918005 -0.1997106 0.684 27 27 17
0.1955076 -0.1997021 0.684 25 25 15
0.1989238 -0.1994024 0.683 23 24 12
0.202033 -0.1988115 0.6810001 22 23 11
0.2060273 -0.1990972 0.682 27 28 16
0.2094181 -0.1987999 0.6810001 24 25 13
0.2121729 -0.1979197 0.678 23 24 12
0.2168062 -0.1987919 0.6810001 25 26 14
0.2211493 -0.1993732 0.683 25 28 16
0.2261735 -0.2005392 0.687 22 24 14
0.2312424 -0.2017064 0.691 20 22 12
0.236356 -0.2028747 0.6950001 25 25 15
0.2422056 -0.2046281 0.701 26 30 23
0.2498768 -0.2078423 0.712 124 129 126
0.2601641 -0.2131015 0.73 133 139 141
0.2684782 -0.2166108 0.742 150 156 159
0.2677433 -0.2128235 0.729 184 187 193
-0.2300354 -0.3043988 1.023 57 58 54
-0.2240511 -0.303823 1.021 40 44 37
-0.216804 -0.3014617 1.013 32 36 29
-0.2106861 -0.3005886 1.01 31 33 25
-0.2048033 -0.3000131 1.008 31 31 23
-0.1991393 -0.2997354 1.007 28 28 18
-0.1934855 -0.2994577 1.006 24 27 15
-0.1882157 -0.2997754 1.007 24 25 13
-0.1831157 -0.3003908 1.009 22 22 12
-0.1776412 -0.3004108 1.009 17 17 9
-0.1730191 -0.3019195 1.014 16 15 9
-0.1678462 -0.302535 1.016 12 13 7
-0.1629704 -0.3037459 1.02 15 14 8
-0.1586677 -0.3061478 1.028 15 14 8
-0.1539794 -0.3079543 1.034 20 19 13
-0.1482207 -0.3076756 1.033 39 39 31
-0.1397109 -0.3014393 1.012 45 47 39
-0.1218796 -0.2737543 0.919 44 46 38
-0.1187944 -0.2782388 0.934 44 46 38
-0.1084836 -0.2654442 0.891 29 31 21
-0.1007333 -0.2580106 0.8660001 26 27 15
-0.09469549 -0.254449 0.854 29 31 21
-0.0881548 -0.2490987 0.836 30 32 22
-0.08300933 -0.2473232 0.83 31 34 22
-0.07821223 -0.246441 0.827 25 28 14
-0.07326888 -0.2449621 0.822 23 26 14
-0.06863046 -0.2443767 0.8200001 23 26 14
-0.06385677 -0.2431945 0.816 25 26 14
-0.05905325 -0.2417136 0.811 25 23 12
-0.05430368 -0.2402321 0.8060001 24 24 14
-0.04979387 -0.239644 0.804 20 22 12
-0.04502297 -0.2375648 0.7970001 22 24 14
-0.04058313 -0.2369754 0.795 21 24 12
-0.03598229 -0.2351929 0.789 23 26 14
-0.03156695 -0.2343039 0.786 21 24 12
-0.02718401 -0.2334142 0.7830001 22 24 14
-0.02289204 -0.2331202 0.7820001 21 21 13
-0.01858693 -0.2325272 0.78 17 17 9
-0.01430344 -0.2319336 0.7780001 19 19 9
-0.0100416 -0.2313393 0.776 21 21 11
-0.005801448 -0.2307444 0.774 20 20 10
-0.001589178 -0.2310431 0.775 23 23 13
0.002620418 -0.2301486 0.772 22 22 12
0.006815 -0.2298498 0.771 24 27 15
0.01101292 -0.2298483 0.771 25 25 15
0.01519101 -0.2295481 0.77 26 26 16
0.01938325 -0.2295454 0.77 25 25 17
0.02354471 -0.2292438 0.7690001 22 22 12
0.02773113 -0.2292398 0.7690001 25 23 13
0.03191732 -0.229235 0.7690001 21 21 11
0.03600933 -0.2286335 0.767 22 22 12
0.04028884 -0.2292237 0.7690001 18 18 10
0.04447411 -0.2292171 0.7690001 17 19 11
0.04859572 -0.2289118 0.768 16 18 8
0.05284351 -0.2292021 0.7690001 19 19 11
0.05710174 -0.2294917 0.77 16 16 8
0.06137038 -0.2297808 0.771 20 17 10
0.06547936 -0.2294733 0.77 19 19 9
0.06984837 -0.2300592 0.772 20 20 10
0.07404678 -0.2300486 0.772 21 22 10
0.07824463 -0.2300376 0.772 20 23 11
0.08254872 -0.2303241 0.7730001 23 26 14
0.08697529 -0.2309079 0.775 20 21 9
0.09154067 -0.2317893 0.7780001 23 24 12
0.09564564 -0.2314784 0.777 20 23 11
0.09986765 -0.2314652 0.777 22 22 12
0.104223 -0.2317494 0.7780001 22 23 11
0.1084491 -0.2317355 0.7780001 22 22 14
0.1129643 -0.2323169 0.78 21 21 13
0.1173502 -0.2326001 0.781 21 21 11
0.1217464 -0.2328831 0.7820001 23 23 13
0.1263139 -0.2334636 0.784 20 20 10
0.1312355 -0.2346395 0.788 18 20 10
0.1360279 -0.2355172 0.791 19 19 9
0.1406749 -0.236097 0.793 15 15 7
0.1453429 -0.2366767 0.795 18 15 9
0.1500321 -0.2372563 0.7970001 16 15 9
0.1551297 -0.2384311 0.8010001 14 13 7
0.1594738 -0.2384152 0.8010001 15 14 8
0.1644309 -0.2392923 0.804 14 13 7
0.1704698 -0.2416574 0.812 13 12 6
0.1748721 -0.2416417 0.812 16 16 8
0.1708843 -0.2303186 0.774 21 21 11
0.1680675 -0.22108 0.743 16 18 8
0.1679255 -0.2157107 0.725 19 19 9
0.1692474 -0.2124251 0.714 22 23 11
0.1711773 -0.2100326 0.706 23 26 14
0.1730204 -0.2076408 0.698 23 26 14
0.1760432 -0.2067371 0.6950001 29 30 18
0.1790334 -0.2058339 0.692 29 32 20
0.1814629 -0.2043364 0.687 29 32 20
0.1841079 -0.2031371 0.683 28 28 18
0.1878096 -0.203128 0.683 25 27 17
0.1917921 -0.203417 0.684 25 27 19
