ply 
format ascii 1.0 
element vertex 1271
property float x 
property float y 
property float z 
property uchar red 
property uchar green 
property uchar blue 
end_header 
0.2144188 -0.2400563 0.6620001 25 26 12
0.2173699 -0.2393459 0.66 24 25 13
0.2216403 -0.2400877 0.6620001 23 26 14
0.2262747 -0.2411939 0.665 22 25 11
0.2305984 -0.2419393 0.6670001 24 25 11
0.2352974 -0.2430493 0.67 28 29 15
0.2403884 -0.2445241 0.674 27 30 18
0.24625 -0.2467268 0.68 35 39 31
0.255121 -0.251835 0.694 133 137 130
0.2682525 -0.2609387 0.719 99 102 98
0.2824186 -0.2707728 0.7460001 28 29 25
0.2776814 -0.2624612 0.723 52 56 49
0.2863299 -0.2668571 0.735 57 58 52
-0.2159865 -0.3624278 0.9850001 41 31 14
-0.2142758 -0.3686884 1.002 168 142 123
-0.2088376 -0.3686946 1.002 236 205 184
-0.2025876 -0.3672297 0.998 242 209 190
-0.1971714 -0.3672371 0.998 238 201 179
-0.1917553 -0.367245 0.998 229 192 170
-0.1859657 -0.3665175 0.9960001 216 177 155
-0.1805604 -0.3665263 0.9960001 191 155 137
-0.1762102 -0.3687436 1.002 158 124 107
-0.1712834 -0.3698572 1.005 129 102 87
-0.1661589 -0.3706031 1.007 81 66 51
-0.1065077 -0.3541392 0.9620001 59 62 59
-0.0997041 -0.3486263 0.947 32 34 26
-0.0930631 -0.3431129 0.932 31 33 23
-0.08677353 -0.3383352 0.919 28 30 20
-0.08080285 -0.3342933 0.9080001 25 28 16
-0.07286242 -0.3210465 0.872 30 33 19
-0.06664098 -0.314058 0.853 24 27 13
-0.06186146 -0.3133279 0.851 21 24 12
-0.057507 -0.3148067 0.855 18 20 10
-0.05298516 -0.3155487 0.8570001 17 17 9
-0.04804662 -0.3137129 0.8520001 16 16 8
-0.04280548 -0.3092991 0.84 18 18 8
-0.03760352 -0.3041483 0.826 21 21 11
-0.03259364 -0.2993651 0.813 20 21 9
-0.02796749 -0.297159 0.807 22 23 11
-0.02346487 -0.2956889 0.803 22 23 11
-0.01898183 -0.29385 0.798 20 23 11
-0.01458975 -0.2927471 0.795 19 21 11
-0.01023021 -0.2916437 0.7920001 16 18 8
-0.005918191 -0.2912764 0.791 18 18 8
-0.00161497 -0.2905403 0.789 19 19 9
0.002656354 -0.2886991 0.784 21 21 11
0.006873315 -0.2868574 0.779 19 19 9
0.01103589 -0.2850152 0.774 21 21 11
0.01524253 -0.2850138 0.774 21 21 11
0.01939884 -0.2842754 0.772 24 25 13
0.02356389 -0.2839049 0.771 22 25 13
0.02764596 -0.2827975 0.768 21 24 12
0.03177815 -0.2824261 0.767 19 21 11
0.03585247 -0.2816861 0.765 19 19 9
0.04000948 -0.2816821 0.765 18 18 8
0.04422406 -0.2820459 0.766 21 21 11
0.04813346 -0.2805684 0.762 20 20 10
0.052205 -0.2801951 0.761 19 19 11
0.05648755 -0.280926 0.763 18 18 10
0.06087106 -0.2820248 0.766 18 18 10
0.06503224 -0.2820187 0.766 19 19 11
0.06928349 -0.2823805 0.767 15 17 9
0.07344958 -0.2823738 0.767 15 17 9
0.07781781 -0.2831032 0.7690001 15 17 9
0.08220747 -0.2838323 0.771 17 17 9
0.08617038 -0.2830887 0.7690001 15 17 9
0.09081621 -0.2845536 0.7730001 14 16 8
0.09513645 -0.284914 0.774 12 16 8
0.09933894 -0.2849062 0.774 11 15 8
0.103675 -0.2852664 0.775 13 14 8
0.1085784 -0.2870988 0.78 13 12 6
0.113102 -0.2878269 0.7820001 14 13 7
0.117647 -0.2885549 0.784 15 14 8
0.1223691 -0.2896511 0.7870001 13 12 6
0.1269625 -0.2903791 0.789 13 12 6
0.1309122 -0.2896352 0.7870001 11 12 6
0.1356988 -0.2907316 0.79 10 11 5
0.1406951 -0.2921962 0.794 10 11 5
0.1450042 -0.2921889 0.794 10 11 5
0.1493132 -0.2921819 0.794 11 12 6
0.1540092 -0.2929113 0.7960001 10 11 5
0.158528 -0.293273 0.7970001 8 12 5
0.1630577 -0.2936351 0.798 11 12 6
0.1678081 -0.2943657 0.8 9 13 6
0.17215 -0.2943609 0.8 10 11 5
0.1773746 -0.2958284 0.804 13 14 8
0.1806085 -0.2939851 0.799 14 13 7
0.1733722 -0.2755853 0.749 22 22 12
0.1705683 -0.2649132 0.72 26 28 18
0.1706003 -0.2590251 0.7040001 24 27 15
0.1719455 -0.2553453 0.694 24 29 17
0.173689 -0.2524022 0.686 22 27 15
0.1763808 -0.2509317 0.682 20 23 11
0.1790297 -0.249462 0.678 25 26 14
0.1813664 -0.2476254 0.673 26 29 15
0.1841995 -0.2465255 0.67 24 27 15
0.1875616 -0.2461625 0.669 26 27 13
0.1906279 -0.2454327 0.6670001 24 26 9
0.1936736 -0.2447039 0.665 29 30 16
0.1972921 -0.2447122 0.665 25 26 14
0.2000055 -0.2436178 0.6620001 25 26 12
0.2033026 -0.2432606 0.661 27 28 14
0.2078425 -0.2443769 0.664 24 27 13
0.2111427 -0.2440225 0.663 24 27 13
0.2147577 -0.2440376 0.663 22 25 13
0.2180451 -0.2436862 0.6620001 21 24 10
0.2216584 -0.2437044 0.6620001 22 23 9
0.2256141 -0.2440924 0.663 24 25 11
0.2306202 -0.2455869 0.6670001 31 32 20
0.2349699 -0.246347 0.669 26 29 17
0.2400575 -0.2478456 0.673 25 29 21
0.2459158 -0.2500831 0.679 34 38 31
0.254784 -0.2552701 0.693 120 121 115
0.2679134 -0.2645129 0.7180001 33 34 30
0.2801846 -0.2726552 0.74 49 47 45
0.29539 -0.2833818 0.7690001 50 50 48
-0.1903275 -0.3240854 0.868 215 190 168
-0.2159813 -0.3771081 1.01 184 158 139
-0.2086233 -0.3737525 1.001 236 206 183
-0.2021751 -0.3718911 0.9960001 244 209 188
-0.1969668 -0.3722706 0.997 236 199 177
-0.1911713 -0.3715304 0.9950001 225 186 162
-0.1859577 -0.371911 0.9960001 217 178 154
-0.1807333 -0.3722921 0.997 186 151 130
-0.1760255 -0.3737938 1.001 152 122 107
-0.1709334 -0.3745491 1.003 127 104 90
-0.105281 -0.3552272 0.951 55 55 57
-0.09885334 -0.3507532 0.9390001 32 36 29
-0.09215631 -0.3447845 0.923 29 34 23
-0.08591601 -0.339936 0.91 27 29 21
-0.08026155 -0.3369548 0.9020001 24 26 16
-0.07427597 -0.3321053 0.8890001 21 24 12
-0.06718147 -0.3212781 0.86 21 26 12
-0.06149206 -0.3160539 0.846 23 28 16
-0.05682883 -0.3156859 0.845 22 24 14
-0.05223805 -0.3156911 0.845 17 19 9
-0.04781624 -0.3168167 0.848 16 18 8
-0.04300495 -0.3153268 0.844 19 19 11
-0.03814591 -0.3130891 0.8380001 16 16 8
-0.03323166 -0.3097301 0.8290001 20 20 10
-0.02827645 -0.3048761 0.816 22 22 12
-0.02363772 -0.3022634 0.809 21 19 9
-0.01912254 -0.3003975 0.804 21 21 11
-0.01467996 -0.2989047 0.8 20 20 10
-0.01028079 -0.2974114 0.7960001 22 22 12
-0.005932525 -0.2962914 0.793 20 20 10
-0.001612752 -0.2944236 0.788 23 21 11
0.002666235 -0.2940499 0.7870001 20 18 8
0.006925519 -0.2933021 0.785 19 17 7
0.01114878 -0.2921803 0.7820001 19 19 9
0.01533938 -0.2910581 0.779 17 17 7
0.01947218 -0.2895617 0.775 21 21 11
0.02356142 -0.288065 0.771 22 22 12
0.02767908 -0.2873152 0.7690001 20 23 11
0.0318163 -0.2869386 0.768 19 22 10
0.03594252 -0.2865616 0.767 21 24 12
0.04016231 -0.2869315 0.768 22 23 11
0.04421962 -0.2861801 0.766 19 19 9
0.04838134 -0.2861757 0.766 20 20 10
0.05247428 -0.2857973 0.765 18 18 8
0.05677822 -0.2865393 0.767 18 18 10
0.06102421 -0.2869074 0.768 16 16 8
0.06511107 -0.2865281 0.767 18 18 10
0.06954813 -0.2876428 0.77 14 14 6
0.07373028 -0.2876366 0.77 15 15 7
0.07801336 -0.2880036 0.771 15 15 7
0.08220045 -0.2879969 0.771 16 16 8
0.08672342 -0.2891107 0.774 17 14 8
0.09127875 -0.2902242 0.777 14 13 7
0.0957435 -0.2909641 0.779 16 15 9
0.1002297 -0.2917038 0.781 13 14 8
0.1046037 -0.2920699 0.7820001 12 13 7
0.1088491 -0.2920626 0.7820001 13 14 8
0.1136727 -0.293549 0.786 12 13 7
0.1183896 -0.2946621 0.789 14 15 9
0.1226724 -0.2946548 0.789 12 11 5
0.1271159 -0.295021 0.79 13 12 6
0.1310712 -0.2942671 0.788 11 12 6
0.1353482 -0.2942603 0.788 9 13 6
0.140511 -0.2961208 0.793 11 12 6
0.1446323 -0.2957411 0.7920001 10 14 7
0.1493069 -0.2964818 0.794 9 13 6
0.1538098 -0.2968496 0.795 10 11 5
0.1583236 -0.2972178 0.7960001 10 9 5
0.1630526 -0.2979598 0.798 10 11 7
0.1673841 -0.2979555 0.798 10 11 5
0.1719309 -0.2983253 0.799 9 10 4
0.17693 -0.2994423 0.802 11 12 6
0.1799277 -0.2971998 0.7960001 15 14 8
0.172676 -0.2785299 0.7460001 25 26 14
0.1698566 -0.2677015 0.717 30 31 19
0.1701154 -0.2621011 0.702 24 26 16
0.1714506 -0.2583683 0.692 22 27 16
0.1736904 -0.2561297 0.686 26 31 19
0.1758658 -0.2538919 0.68 23 25 15
0.1785048 -0.2524018 0.6760001 25 27 17
0.1811011 -0.2509126 0.6720001 22 25 13
0.1833798 -0.2490509 0.6670001 25 26 14
0.187007 -0.2490572 0.6670001 28 29 17
0.1900636 -0.2483179 0.665 24 25 11
0.1933908 -0.247953 0.664 24 27 15
0.1967084 -0.2475894 0.663 22 25 13
0.2000164 -0.247227 0.6620001 23 26 14
0.2036225 -0.2472394 0.6620001 21 24 10
0.2072302 -0.2472532 0.6620001 22 25 11
0.2108395 -0.2472685 0.6620001 21 24 10
0.2147744 -0.2476588 0.663 20 23 9
0.2180634 -0.2473036 0.6620001 23 26 12
0.2223481 -0.2480708 0.664 21 24 12
0.2263165 -0.2484663 0.665 26 27 15
0.2299522 -0.2484898 0.665 25 26 14
0.2346442 -0.2496364 0.668 26 29 17
0.2393716 -0.2507852 0.671 27 33 25
0.2459458 -0.2538052 0.679 48 52 45
0.2555522 -0.2598188 0.6950001 54 55 51
0.2716815 -0.2721923 0.728 35 35 33
0.2734082 -0.2699879 0.7220001 44 42 40
0.2835245 -0.2760132 0.738 57 58 52
0.2681018 -0.257355 0.688 45 46 40
-0.2010691 -0.347356 0.9170001 194 164 149
-0.2151223 -0.3810714 1.006 194 164 149
-0.2079936 -0.3780443 0.998 242 211 190
-0.201764 -0.3765331 0.994 241 206 184
-0.1961708 -0.376159 0.993 235 196 172
-0.1909729 -0.3765431 0.994 228 189 167
-0.1857642 -0.3769279 0.9950001 208 168 148
-0.180726 -0.3776919 0.997 189 151 133
-0.175842 -0.3788353 1 155 123 108
-0.1707549 -0.3796003 1.002 120 99 87
-0.1042766 -0.3569556 0.942 58 60 60
-0.09758225 -0.3512791 0.927 30 34 27
-0.0911504 -0.3459812 0.913 31 33 25
-0.08524798 -0.3421987 0.9030001 27 29 21
-0.07972083 -0.3395527 0.896 29 29 21
-0.07401884 -0.3357694 0.886 25 28 14
-0.06842527 -0.3319857 0.876 24 27 13
-0.06214061 -0.3240327 0.855 23 26 14
-0.05662187 -0.3191111 0.8420001 24 27 15
-0.05167686 -0.316842 0.836 22 27 15
-0.04713514 -0.3168464 0.836 17 19 9
-0.04269515 -0.3176086 0.8380001 17 19 9
-0.0380512 -0.3168543 0.836 17 19 9
-0.03338875 -0.3157206 0.8330001 16 18 8
-0.02865482 -0.3134494 0.827 19 19 9
-0.02398598 -0.3111778 0.821 21 19 9
-0.01938224 -0.3089058 0.8150001 19 19 9
-0.01484363 -0.3066333 0.809 18 18 8
-0.01037016 -0.3043603 0.803 20 20 10
-0.005976813 -0.302845 0.799 19 19 9
-0.001622822 -0.3005712 0.793 20 20 10
0.002679518 -0.299813 0.791 22 20 10
0.006942469 -0.2982965 0.7870001 17 17 7
0.01120468 -0.2979165 0.786 17 17 9
0.01545599 -0.2975363 0.785 19 19 9
0.01964611 -0.2963975 0.7820001 18 20 10
0.02380355 -0.2952583 0.779 18 20 10
0.02789231 -0.2937398 0.775 17 19 9
0.03197891 -0.2925999 0.772 17 19 9
0.03603278 -0.2914597 0.7690001 19 20 8
0.04021078 -0.2914562 0.7690001 21 22 10
0.04421546 -0.2903153 0.766 20 21 9
0.04856632 -0.2914481 0.7690001 21 21 11
0.05260665 -0.2906856 0.767 20 22 12
0.0567731 -0.2906808 0.767 18 18 8
0.06093936 -0.2906757 0.767 19 19 11
0.06510541 -0.2906704 0.767 16 16 8
0.06945189 -0.2914228 0.7690001 16 16 8
0.07362838 -0.2914169 0.7690001 18 18 10
0.07800701 -0.2921689 0.771 13 15 7
0.08230054 -0.2925416 0.772 16 15 9
0.08682878 -0.2936721 0.775 16 15 9
0.09115446 -0.2940445 0.776 16 15 9
0.09561367 -0.2947958 0.7780001 15 14 8
0.1002227 -0.2959259 0.781 14 13 7
0.1047304 -0.296677 0.7830001 12 13 7
0.108842 -0.2962914 0.7820001 12 13 7
0.1135211 -0.2974214 0.785 13 14 8
0.1179325 -0.2977937 0.786 12 13 7
0.1223546 -0.2981661 0.7870001 12 13 7
0.1266265 -0.2981597 0.7870001 11 12 6
0.1310647 -0.2985324 0.788 13 14 8
0.1355136 -0.2989053 0.789 11 12 6
0.1399734 -0.2992785 0.79 12 13 7
0.1446266 -0.3000308 0.7920001 11 12 6
0.1491136 -0.3004046 0.793 10 11 5
0.1536114 -0.3007788 0.794 13 12 8
0.1583191 -0.3015324 0.7960001 12 11 7
0.1628444 -0.3019075 0.7970001 11 10 6
0.1673807 -0.3022832 0.798 11 12 8
0.1717129 -0.3022807 0.798 11 12 6
0.1767073 -0.3034153 0.8010001 11 12 6
0.1794743 -0.3007626 0.794 14 13 7
0.171981 -0.2814438 0.743 22 22 12
0.169383 -0.270838 0.715 26 29 15
0.1696317 -0.2651573 0.7 27 30 16
0.1709568 -0.2613714 0.6900001 25 28 16
0.1731867 -0.2591014 0.684 24 27 15
0.1756107 -0.2572111 0.679 26 28 18
0.1785093 -0.2560794 0.6760001 25 28 16
0.1811066 -0.2545698 0.6720001 26 27 15
0.1836613 -0.2530611 0.668 19 22 10
0.1870146 -0.25269 0.6670001 23 26 14
0.1900724 -0.2519412 0.665 23 26 14
0.1939833 -0.2523302 0.666 22 25 11
0.1967196 -0.2512049 0.663 22 25 11
0.2003311 -0.2512175 0.663 21 24 10
0.2033288 -0.2504737 0.661 23 24 10
0.2069325 -0.2504891 0.661 25 24 10
0.2108563 -0.2508851 0.6620001 23 24 10
0.2141449 -0.2505246 0.661 23 24 10
0.2180835 -0.2509237 0.6620001 27 28 14
0.22237 -0.2517037 0.664 25 26 12
0.2266805 -0.2524856 0.666 27 28 14
0.2303236 -0.2525112 0.666 24 25 11
0.2350231 -0.2536763 0.669 28 29 15
0.2401149 -0.2552229 0.673 26 31 20
0.2463402 -0.2579097 0.68 54 58 50
0.2566906 -0.264772 0.698 33 37 30
0.2687348 -0.2731561 0.72 69 70 64
0.2734496 -0.2739562 0.7220001 52 56 49
0.2666629 -0.2633741 0.694 41 46 35
0.2872438 -0.2797402 0.737 43 47 39
0.2865635 -0.2752349 0.725 41 40 34
-0.2216791 -0.388451 1.011 46 49 35
-0.2144786 -0.385378 1.003 201 174 159
-0.207157 -0.3819217 0.994 244 213 192
-0.2015574 -0.3815401 0.993 246 211 189
-0.1961665 -0.3815434 0.993 241 204 182
-0.1909679 -0.3819315 0.994 232 195 173
-0.1857587 -0.3823204 0.9950001 214 179 157
-0.1801762 -0.3819412 0.994 192 156 138
-0.1758355 -0.3842523 1 159 129 114
-0.1052654 -0.3655064 0.951 48 51 48
-0.09683829 -0.3535987 0.92 36 38 28
-0.09034491 -0.3478401 0.905 30 32 22
-0.08448621 -0.3440029 0.895 30 32 24
-0.07900278 -0.3413185 0.8880001 28 30 20
-0.07376225 -0.3394025 0.883 22 25 11
-0.06841961 -0.3367174 0.876 21 24 10
-0.06322549 -0.3344164 0.8700001 22 25 13
-0.05735668 -0.3278867 0.853 22 25 11
-0.05161056 -0.3209721 0.835 27 30 18
-0.04662361 -0.317901 0.827 24 29 17
-0.04218191 -0.3182892 0.8280001 21 26 14
-0.03763817 -0.3179082 0.827 18 21 9
-0.03314524 -0.3179113 0.827 20 23 11
-0.0285829 -0.3171452 0.825 20 23 11
-0.02404219 -0.3163787 0.823 20 20 10
-0.01945177 -0.3144585 0.818 18 18 8
-0.01491563 -0.312538 0.813 19 16 9
-0.01047249 -0.3117703 0.811 17 14 7
-0.006051048 -0.3110021 0.809 20 17 10
-0.001647225 -0.3094648 0.8050001 18 18 10
0.002716525 -0.3083114 0.802 19 19 9
0.007047664 -0.3071577 0.799 21 19 9
0.01133192 -0.3056192 0.795 18 15 8
0.01561204 -0.3048491 0.793 18 18 10
0.01976989 -0.302541 0.7870001 16 18 10
0.02401523 -0.3021546 0.786 20 20 12
0.02821364 -0.3013835 0.784 17 17 9
0.03234878 -0.3002276 0.781 17 17 9
0.03640436 -0.2986869 0.777 17 17 9
0.04036406 -0.2967615 0.772 17 17 7
0.04444245 -0.2959891 0.77 19 19 9
0.04856211 -0.2956009 0.7690001 20 20 10
0.05260216 -0.2948279 0.767 17 19 9
0.05684236 -0.2952078 0.768 20 22 12
0.06093435 -0.2948187 0.767 18 20 10
0.06518504 -0.2951982 0.768 18 18 8
0.06953673 -0.2959618 0.77 16 18 8
0.07371847 -0.2959565 0.77 16 16 8
0.07830469 -0.2974884 0.774 13 15 7
0.08250776 -0.2974828 0.774 16 15 9
0.08693469 -0.2982456 0.776 16 15 9
0.09114823 -0.2982397 0.776 15 14 8
0.09573026 -0.2993868 0.779 15 14 8
0.1000881 -0.2997651 0.78 15 14 8
0.1043228 -0.2997591 0.78 11 12 6
0.1088357 -0.3005218 0.7820001 11 12 6
0.1133702 -0.3012845 0.784 11 15 8
0.1179263 -0.3020472 0.786 13 14 8
0.1221931 -0.3020416 0.786 11 12 6
0.126138 -0.3012676 0.784 12 13 7
0.1308928 -0.3024151 0.7870001 12 13 7
0.1355083 -0.3031786 0.789 11 12 6
0.1397912 -0.3031739 0.789 15 14 8
0.1444393 -0.3039381 0.791 10 11 5
0.1489213 -0.3043184 0.7920001 12 13 9
0.1534141 -0.3046991 0.793 11 12 6
0.157918 -0.3050803 0.794 11 10 6
0.1624329 -0.305462 0.795 13 12 8
0.1673785 -0.3066128 0.798 10 11 7
0.1717114 -0.3066116 0.798 10 11 5
0.1767065 -0.3077638 0.8010001 11 12 6
0.1785701 -0.3035375 0.79 14 16 8
0.1705929 -0.2831745 0.737 23 28 16
0.1686738 -0.2735705 0.712 25 28 14
0.169634 -0.2689623 0.7 26 29 15
0.1709599 -0.2651233 0.6900001 28 29 17
0.1731907 -0.262822 0.684 24 27 15
0.1756156 -0.2609059 0.679 26 29 15
0.1787792 -0.2601434 0.677 26 27 13
0.1816524 -0.2589977 0.674 26 27 13
0.1836692 -0.2567002 0.668 21 24 10
0.1867433 -0.2559408 0.666 25 28 16
0.1903684 -0.2559512 0.666 22 25 11
0.1937035 -0.2555785 0.665 24 27 13
0.1967324 -0.2548228 0.663 22 23 9
0.2006474 -0.2552215 0.664 25 26 12
0.2030367 -0.2536996 0.66 23 24 10
0.2066364 -0.2537167 0.66 26 25 11
0.2102378 -0.2537354 0.66 22 23 11
0.2148132 -0.2549092 0.663 24 25 13
0.217776 -0.2541622 0.661 27 28 16
0.2217239 -0.2545705 0.6620001 23 24 10
0.225685 -0.2549807 0.663 24 25 11
0.2300053 -0.2557774 0.665 28 29 15
0.2350528 -0.2573456 0.669 25 28 14
0.2401468 -0.2589163 0.673 29 31 21
0.2474616 -0.2627981 0.683 39 43 36
0.2585672 -0.2705314 0.703 39 40 34
0.2598169 -0.2678776 0.696 61 62 58
0.2731147 -0.2775435 0.721 42 46 39
0.2603969 -0.2572302 0.668 49 53 46
-0.2142643 -0.3904343 1.002 210 180 163
-0.2069473 -0.3869275 0.993 245 214 193
-0.2013523 -0.3865389 0.992 244 211 190
-0.1957685 -0.386151 0.9910001 241 204 183
-0.1905801 -0.3865432 0.992 231 194 173
-0.1853811 -0.3869359 0.993 212 177 156
-0.1799902 -0.3869397 0.993 190 156 139
-0.1754786 -0.3888924 0.998 159 130 116
-0.1150668 -0.3862317 0.9910001 67 66 70
-0.1072509 -0.377664 0.969 48 52 45
-0.09641084 -0.3570136 0.9160001 34 37 25
-0.08963997 -0.3500039 0.8980001 32 34 24
-0.08400829 -0.3468916 0.89 29 31 21
-0.07846329 -0.3437789 0.882 26 29 17
-0.07333913 -0.3422251 0.878 25 29 12
-0.06810204 -0.3398915 0.872 25 26 12
-0.06300259 -0.3379473 0.867 21 24 12
-0.05795729 -0.3360029 0.862 18 21 7
-0.05253349 -0.3313295 0.85 21 24 10
-0.0468453 -0.3239271 0.831 22 25 13
-0.04197467 -0.321202 0.8240001 24 27 15
-0.03731647 -0.3196459 0.8200001 22 25 11
-0.03282184 -0.3192589 0.8190001 19 22 10
-0.02840725 -0.3196512 0.8200001 22 25 13
-0.02392328 -0.3192635 0.8190001 21 24 12
-0.01935499 -0.3173162 0.814 20 20 10
-0.01487764 -0.3161482 0.811 19 19 11
-0.01045867 -0.3157594 0.8100001 17 17 9
-0.006072958 -0.3165397 0.812 15 14 8
-0.001661403 -0.3165401 0.812 12 13 7
0.00274677 -0.3161502 0.811 11 12 6
0.007117608 -0.3145905 0.807 16 15 9
0.01147346 -0.3138101 0.8050001 15 14 8
0.01578786 -0.3126394 0.802 18 17 11
0.02006961 -0.3114685 0.799 16 16 8
0.02437979 -0.3110768 0.798 18 15 8
0.02853509 -0.3091255 0.793 16 16 8
0.03276022 -0.3083434 0.791 18 18 10
0.03701036 -0.3079508 0.79 17 17 9
0.04098811 -0.3056089 0.784 16 16 8
0.04507369 -0.3044361 0.781 17 17 9
0.04900025 -0.3024835 0.776 19 19 11
0.0530095 -0.3013102 0.7730001 15 17 9
0.05713401 -0.3009163 0.772 18 18 10
0.06108864 -0.2997427 0.7690001 19 19 9
0.06526511 -0.2997382 0.7690001 19 21 11
0.06962202 -0.300513 0.771 20 22 12
0.07390476 -0.300898 0.772 15 17 7
0.07829936 -0.3016725 0.774 19 21 11
0.08250232 -0.3016674 0.774 19 19 11
0.08704117 -0.3028314 0.777 16 16 8
0.09137754 -0.3032159 0.7780001 14 16 8
0.09560174 -0.3032106 0.7780001 12 14 6
0.09995411 -0.3035951 0.779 14 15 9
0.1041835 -0.3035898 0.779 11 12 6
0.108691 -0.3043641 0.781 12 13 7
0.1132202 -0.3051383 0.7830001 11 12 6
0.117771 -0.3059128 0.785 12 11 5
0.1220325 -0.305908 0.785 13 12 6
0.1261331 -0.3055137 0.784 11 12 6
0.1308881 -0.3066785 0.7870001 13 14 8
0.1353322 -0.3070641 0.788 11 12 6
0.13961 -0.3070605 0.788 9 10 4
0.1435227 -0.3062778 0.786 12 13 7
0.14873 -0.3082232 0.791 10 11 5
0.1532179 -0.3086106 0.7920001 10 11 5
0.1575181 -0.3086087 0.7920001 10 11 5
0.1624313 -0.3097764 0.795 9 10 4
0.166958 -0.3101654 0.7960001 13 14 8
0.1712808 -0.3101654 0.7960001 14 18 10
0.176707 -0.3121145 0.8010001 17 19 9
0.1787974 -0.3082195 0.791 23 26 14
0.1705949 -0.2871802 0.737 28 31 19
0.1684396 -0.277052 0.711 27 30 16
0.1693952 -0.2723798 0.6990001 30 32 15
0.1712121 -0.2692671 0.691 26 29 15
0.173196 -0.2665448 0.684 27 30 16
0.1753632 -0.2642132 0.678 26 27 15
0.1779942 -0.2626618 0.674 26 27 13
0.1811217 -0.2618909 0.6720001 23 27 10
0.1836786 -0.2603417 0.668 24 27 13
0.1867538 -0.2595729 0.666 26 27 13
0.1900944 -0.2591951 0.665 25 26 12
0.1937166 -0.2592084 0.665 25 26 12
0.19645 -0.2580536 0.6620001 23 24 10
0.2006633 -0.2588492 0.664 23 26 14
0.2039769 -0.2584768 0.663 23 24 12
0.2075945 -0.2584958 0.663 22 23 11
0.2108954 -0.2581265 0.6620001 22 24 14
0.2145113 -0.2581487 0.6620001 23 23 13
0.2174703 -0.2573926 0.66 23 23 13
0.2214145 -0.2578083 0.661 26 27 15
0.2257126 -0.2586161 0.663 24 25 11
0.2303808 -0.259816 0.666 24 27 13
0.2347332 -0.2606281 0.668 24 27 15
0.2405379 -0.2630033 0.674 28 33 22
0.2474985 -0.2665522 0.683 31 35 28
0.260079 -0.2759592 0.707 47 48 44
0.2613527 -0.2732695 0.7 42 42 40
0.2652051 -0.2733147 0.7 34 38 31
0.2675238 -0.2718005 0.696 59 63 55
-0.2051531 -0.3607204 0.913 82 69 54
-0.2140515 -0.3954827 1.001 211 185 167
-0.2069475 -0.3923205 0.993 241 212 193
-0.2007427 -0.3907396 0.989 242 211 190
-0.1957671 -0.39153 0.9910001 239 206 185
-0.190578 -0.391926 0.992 230 194 176
-0.1853784 -0.3923228 0.993 210 174 157
-0.1798057 -0.39193 0.992 184 150 135
-0.1751231 -0.3935134 0.9960001 159 130 116
-0.1208059 -0.3927726 0.994 87 88 92
-0.1141317 -0.3884319 0.983 59 64 61
-0.1071341 -0.3825104 0.9680001 46 50 42
-0.09651037 -0.3623629 0.9170001 38 43 31
-0.08943481 -0.3540697 0.896 39 44 30
-0.08362541 -0.3501231 0.886 29 32 18
-0.07810235 -0.3469666 0.878 26 29 15
-0.07283307 -0.3446003 0.872 27 28 14
-0.06778497 -0.343024 0.868 22 23 9
-0.06270751 -0.3410524 0.863 26 27 13
-0.05775143 -0.3394756 0.859 23 26 12
-0.05277684 -0.3375034 0.854 19 24 12
-0.04774371 -0.3347406 0.8470001 20 23 11
-0.04248086 -0.3296061 0.8340001 23 23 13
-0.03731362 -0.324076 0.8200001 25 28 16
-0.03261894 -0.3217072 0.814 24 27 13
-0.02819719 -0.3217095 0.814 25 28 16
-0.02374615 -0.3213162 0.813 21 24 12
-0.01928212 -0.3205274 0.811 20 23 11
-0.01483977 -0.3197382 0.809 21 24 12
-0.01043201 -0.319344 0.808 16 21 9
-0.006050034 -0.3197398 0.809 15 20 9
-0.001657178 -0.3201354 0.8100001 14 18 10
0.002749936 -0.3209258 0.812 13 15 7
0.007134675 -0.3197397 0.809 14 15 9
0.0114868 -0.3185533 0.8060001 15 14 8
0.01582597 -0.3177618 0.804 18 17 11
0.0201936 -0.3177604 0.804 16 15 9
0.02443897 -0.3161779 0.8 16 17 11
0.02871277 -0.3153854 0.798 12 13 7
0.03304758 -0.3153832 0.798 13 14 8
0.03724176 -0.3141949 0.795 13 14 8
0.04140325 -0.3130065 0.7920001 14 15 9
0.04570515 -0.3130034 0.7920001 13 12 6
0.04988063 -0.3122096 0.79 15 14 8
0.05403427 -0.3114156 0.788 16 15 9
0.05801805 -0.3098311 0.784 13 14 8
0.06179936 -0.307456 0.7780001 14 16 8
0.06576995 -0.3062664 0.775 14 16 8
0.0697981 -0.3054718 0.7730001 17 19 11
0.07390011 -0.3050723 0.772 22 22 12
0.07799112 -0.3046727 0.771 22 22 12
0.08228429 -0.3050634 0.772 22 22 12
0.0867002 -0.3058491 0.774 18 18 8
0.0911377 -0.3066348 0.776 20 22 12
0.09547391 -0.3070253 0.777 17 19 9
0.09969256 -0.3070208 0.777 18 18 8
0.1040449 -0.3074114 0.7780001 15 17 9
0.1084079 -0.3078022 0.779 13 15 7
0.1132156 -0.3093784 0.7830001 14 16 8
0.1176165 -0.3097694 0.784 16 15 9
0.1218728 -0.3097655 0.784 14 13 7
0.1264509 -0.3105521 0.786 13 12 6
0.1308844 -0.3109438 0.7870001 14 13 7
0.1355006 -0.311731 0.789 9 10 4
0.1396071 -0.3113333 0.788 11 12 6
0.1437028 -0.310936 0.7870001 10 11 5
0.1485399 -0.3121195 0.79 13 12 6
0.1528295 -0.3121182 0.79 12 11 5
0.1571193 -0.3121176 0.79 17 17 9
0.1618181 -0.3129078 0.7920001 18 18 8
0.1665389 -0.3136986 0.794 21 21 11
0.1706363 -0.3133048 0.793 24 26 16
0.1756058 -0.3144923 0.7960001 27 28 16
0.1788001 -0.3125198 0.791 28 29 17
0.1712927 -0.2923736 0.74 27 30 18
0.167733 -0.2797348 0.708 27 30 18
0.1684307 -0.2746035 0.6950001 31 33 16
0.1702268 -0.2714486 0.687 29 30 16
0.1726962 -0.2694799 0.682 25 28 16
0.1751122 -0.2675121 0.677 26 29 17
0.1777388 -0.2659404 0.673 25 26 14
0.180862 -0.2651601 0.671 23 24 10
0.1836895 -0.2639857 0.668 24 27 13
0.186766 -0.2632076 0.666 24 27 15
0.1903937 -0.2632213 0.666 25 26 14
0.1928574 -0.2616552 0.6620001 26 27 13
0.1958726 -0.2608809 0.66 24 25 11
0.199472 -0.2608985 0.66 23 24 12
0.203073 -0.2609177 0.66 23 24 10
0.2066758 -0.2609385 0.66 20 25 14
0.2105991 -0.2613562 0.661 24 26 16
0.2148594 -0.2621713 0.663 26 24 13
0.2178256 -0.2614063 0.661 19 17 7
0.2224473 -0.2626206 0.664 25 25 15
0.2254017 -0.2618593 0.6620001 24 25 11
0.2304126 -0.2634734 0.666 24 25 11
0.2351187 -0.2646944 0.669 29 32 18
0.2405744 -0.2667092 0.674 29 34 22
0.2482626 -0.2711015 0.6850001 37 41 33
0.2619618 -0.2818307 0.712 44 48 41
0.2621448 -0.2779178 0.702 49 50 44
0.2679054 -0.2799456 0.707 48 53 42
0.3170406 -0.3220381 0.813 42 47 36
-0.2642292 -0.2655825 0.661 150 150 158
-0.2129852 -0.3989214 0.9960001 231 204 182
-0.2061157 -0.3961145 0.989 242 212 189
-0.2001348 -0.3949108 0.9860001 237 206 185
-0.1949771 -0.3953098 0.987 239 203 185
-0.1901932 -0.3965109 0.9900001 234 196 179
-0.1850038 -0.3969116 0.9910001 214 178 161
-0.179985 -0.3977135 0.993 197 163 146
-0.1745931 -0.397715 0.993 173 145 134
-0.1193421 -0.3933468 0.9820001 75 77 79
-0.1129653 -0.3897467 0.973 57 63 56
-0.1066861 -0.3861465 0.964 49 53 45
-0.09692632 -0.3689269 0.9210001 35 39 31
-0.08893093 -0.3569142 0.891 37 41 33
-0.08305445 -0.3525122 0.8800001 39 44 33
-0.07765307 -0.3497124 0.873 27 32 20
-0.07224408 -0.3465118 0.8650001 25 28 16
-0.06731228 -0.345314 0.862 23 26 12
-0.06234026 -0.3437154 0.858 24 27 13
-0.05741157 -0.3421166 0.854 21 25 8
-0.05246439 -0.3401169 0.849 22 25 11
-0.04762778 -0.3385176 0.845 24 27 15
-0.04288542 -0.3373187 0.8420001 18 20 10
-0.03790255 -0.3337158 0.8330001 20 23 11
-0.03285707 -0.32851 0.8200001 21 24 10
-0.02816055 -0.3257077 0.813 25 26 12
-0.02362762 -0.3241069 0.809 19 22 10
-0.01918564 -0.3233072 0.807 25 28 16
-0.01474698 -0.3221064 0.804 19 22 10
-0.01039252 -0.3225079 0.8050001 21 24 12
-0.006012202 -0.3221079 0.804 17 20 8
-0.001646828 -0.3225088 0.8050001 14 19 8
0.002736189 -0.3237106 0.808 18 20 10
0.007116517 -0.3233096 0.807 14 16 8
0.01150021 -0.323309 0.807 17 19 11
0.01584451 -0.3225068 0.8050001 13 15 7
0.02016703 -0.3217043 0.803 16 16 8
0.02437613 -0.3196996 0.798 14 16 8
0.02867476 -0.3192973 0.7970001 13 15 7
0.03287963 -0.3180933 0.794 15 17 9
0.03709867 -0.3172898 0.7920001 13 15 7
0.04145271 -0.3176878 0.793 11 12 6
0.04564438 -0.3168838 0.791 14 13 7
0.04981423 -0.3160796 0.789 10 11 5
0.05409938 -0.3160765 0.789 11 12 6
0.0584584 -0.3164737 0.79 8 12 5
0.0626693 -0.3160696 0.789 11 12 6
0.06678435 -0.3152648 0.7870001 14 15 9
0.07069698 -0.3136586 0.7830001 15 16 10
0.07466176 -0.312453 0.78 15 16 10
0.07869499 -0.311648 0.7780001 16 15 9
0.08270638 -0.3108429 0.776 20 17 10
0.08691996 -0.310839 0.776 21 18 11
0.09136832 -0.3116361 0.7780001 19 19 9
0.09559255 -0.3116323 0.7780001 22 22 12
0.09994501 -0.312029 0.779 22 22 12
0.1039071 -0.3112241 0.777 20 22 12
0.1081257 -0.3112206 0.777 21 21 11
0.112778 -0.3124188 0.78 21 21 11
0.1171629 -0.3128161 0.781 21 22 10
0.1214032 -0.3128132 0.781 19 21 11
0.1261261 -0.3140121 0.784 21 21 13
0.1305491 -0.3144103 0.785 14 14 6
0.1348113 -0.3144083 0.785 19 19 11
0.1392508 -0.3148073 0.786 14 16 8
0.1437014 -0.3152068 0.7870001 18 18 10
0.148163 -0.3156067 0.788 17 17 7
0.1526357 -0.3160072 0.789 21 21 11
0.1571196 -0.3164083 0.79 20 21 9
0.1612061 -0.316009 0.789 24 25 13
0.1663308 -0.3176131 0.793 25 28 16
0.1702084 -0.3168148 0.791 22 25 13
0.1747267 -0.3172189 0.7920001 27 30 18
0.1785782 -0.3164223 0.79 27 28 16
0.1724549 -0.2984033 0.7450001 26 29 15
0.16916 -0.2859923 0.714 24 26 16
0.1686794 -0.2787889 0.696 26 27 13
0.1697384 -0.2743902 0.6850001 29 30 16
0.1724512 -0.2727962 0.6810001 30 31 17
0.1748627 -0.2708027 0.6760001 31 32 20
0.1774849 -0.2692108 0.6720001 27 28 16
0.1811429 -0.2692223 0.6720001 24 25 11
0.1839771 -0.2680332 0.669 23 26 12
0.1864993 -0.2664445 0.665 22 27 15
0.189837 -0.2660591 0.664 24 25 13
0.1931652 -0.265675 0.663 26 27 13
0.196484 -0.2652923 0.6620001 26 27 13
0.1994913 -0.2645102 0.66 23 26 14
0.2034016 -0.2649321 0.661 22 23 9
0.2073247 -0.2653556 0.6620001 21 24 12
0.210942 -0.2653801 0.6620001 23 24 12
0.2148855 -0.2658071 0.663 26 27 13
0.2185127 -0.2658352 0.663 23 24 12
0.2228122 -0.2666672 0.665 23 24 12
0.2261146 -0.2662981 0.664 26 29 15
0.2301007 -0.2667333 0.665 21 27 10
0.2348035 -0.267973 0.668 24 30 13
0.2409702 -0.2708201 0.675 26 31 19
0.2497544 -0.2764793 0.689 36 41 30
0.2594319 -0.2829454 0.705 46 50 42
0.2644337 -0.2841979 0.708 47 52 41
0.2728835 -0.2890668 0.72 38 45 33
0.2753174 -0.2875154 0.716 40 44 36
-0.2085347 -0.3767459 0.928 126 113 100
-0.2192792 -0.405969 1 175 159 144
-0.2121344 -0.4027152 0.992 241 213 194
-0.205494 -0.4002745 0.9860001 244 215 194
-0.2003404 -0.4006765 0.987 247 215 198
-0.1945838 -0.3998615 0.9850001 242 208 193
-0.1901942 -0.4018891 0.9900001 238 201 187
-0.1846306 -0.4014818 0.989 225 189 172
-0.1794408 -0.4018871 0.9900001 207 175 160
-0.1747678 -0.403511 0.994 187 159 150
-0.1231461 -0.3937898 0.97 94 93 99
-0.1181224 -0.3946057 0.9720001 66 68 70
-0.1116837 -0.3905498 0.9620001 57 62 59
-0.1054643 -0.3869 0.9530001 41 45 38
-0.09786914 -0.3775664 0.9300001 36 38 28
-0.08892681 -0.3617367 0.891 38 39 33
-0.08267292 -0.3556506 0.876 39 44 33
-0.07729338 -0.3528123 0.869 36 41 30
-0.07198976 -0.3499738 0.862 32 34 26
-0.06691823 -0.3479472 0.8570001 27 30 18
-0.06190088 -0.3459204 0.8520001 24 27 15
-0.05693774 -0.3438935 0.8470001 22 25 11
-0.05209058 -0.3422723 0.8430001 22 25 11
-0.04739949 -0.341463 0.841 21 24 12
-0.0426791 -0.3402475 0.8380001 22 25 13
-0.03799121 -0.3390317 0.835 17 20 8
-0.03325568 -0.3370037 0.83 18 21 9
-0.02850512 -0.3341633 0.823 18 21 9
-0.02377213 -0.3305106 0.814 21 24 12
-0.0191844 -0.3276697 0.807 22 25 13
-0.01472768 -0.3260465 0.803 23 26 12
-0.01031438 -0.3244231 0.799 22 25 11
-0.005959466 -0.3236116 0.7970001 21 24 10
-0.001628309 -0.3232058 0.7960001 18 21 9
0.002705534 -0.3244238 0.799 22 22 12
0.007054325 -0.3248296 0.8 17 20 8
0.01139971 -0.324829 0.8 19 19 9
0.01576475 -0.3252342 0.8010001 17 17 7
0.02006528 -0.3244211 0.799 17 17 7
0.02434403 -0.3236077 0.7970001 18 18 10
0.02863697 -0.3232 0.7960001 16 18 10
0.03287758 -0.3223862 0.794 14 18 10
0.03704955 -0.3211661 0.791 17 19 11
0.04134566 -0.3211638 0.791 13 15 7
0.04558397 -0.3207554 0.79 13 15 7
0.04987448 -0.3207528 0.79 14 15 9
0.05416488 -0.32075 0.79 12 13 7
0.05838118 -0.3203411 0.789 14 15 9
0.0625071 -0.319526 0.7870001 11 12 6
0.0669506 -0.3203349 0.789 10 11 5
0.0709643 -0.3191136 0.786 11 12 6
0.07494533 -0.3178923 0.7830001 9 10 4
0.07919711 -0.3178891 0.7830001 11 12 6
0.08334222 -0.3174798 0.7820001 12 13 7
0.0874764 -0.3170705 0.781 14 13 7
0.09195193 -0.3178792 0.7830001 15 14 8
0.09595765 -0.317064 0.781 16 15 9
0.09994163 -0.316249 0.779 15 14 8
0.1044387 -0.3170581 0.781 15 17 9
0.1084009 -0.3162434 0.779 15 17 9
0.1126306 -0.3162409 0.779 19 19 11
0.1170103 -0.3166445 0.78 20 20 10
0.1214009 -0.3170485 0.781 21 22 10
0.1256415 -0.3170469 0.781 25 25 15
0.1298823 -0.3170456 0.781 23 24 12
0.1344667 -0.3178566 0.7830001 24 25 13
0.1392501 -0.319074 0.786 23 26 14
0.1438837 -0.319886 0.788 23 24 12
0.1479753 -0.3194807 0.7870001 25 23 12
0.1522497 -0.3194819 0.7870001 22 23 11
0.1567234 -0.3198898 0.788 29 27 16
0.1603911 -0.3186745 0.785 24 25 11
0.1648656 -0.3190838 0.786 26 29 15
0.1684908 -0.31787 0.7830001 25 28 16
0.1734077 -0.319093 0.786 24 27 15
0.1776796 -0.3190989 0.786 26 27 13
0.1713037 -0.3004304 0.74 25 27 17
0.16893 -0.2894759 0.7130001 24 29 18
0.1691718 -0.283394 0.698 21 24 12
0.1704904 -0.2793428 0.688 26 27 13
0.1724608 -0.2765105 0.6810001 33 31 20
0.1751321 -0.2748973 0.677 28 29 17
0.1774967 -0.2728791 0.6720001 25 26 14
0.1808863 -0.2724862 0.671 26 27 13
0.1837162 -0.2712823 0.668 24 27 15
0.1862343 -0.2696734 0.664 21 26 14
0.1892819 -0.2688781 0.6620001 21 24 12
0.1926006 -0.2684903 0.661 24 25 11
0.1965037 -0.2689163 0.6620001 23 24 12
0.200117 -0.2689377 0.6620001 21 22 10
0.2040399 -0.269367 0.663 19 22 8
0.2073492 -0.2689854 0.6620001 21 24 12
0.2106496 -0.2686054 0.661 23 26 14
0.2145896 -0.2690401 0.6620001 22 25 13
0.2185427 -0.2694767 0.663 22 25 13
0.2218391 -0.2691024 0.6620001 25 26 12
0.2258082 -0.2695431 0.663 25 28 14
0.230137 -0.2703926 0.665 25 30 16
0.2348422 -0.2716511 0.668 25 30 16
0.2424399 -0.2761661 0.679 34 42 27
0.2519745 -0.2827189 0.6950001 40 45 34
0.2569038 -0.2839872 0.698 51 55 47
0.259255 -0.28241 0.694 46 50 43
0.2369257 -0.2543795 0.625 54 58 50
0.2865283 -0.3032802 0.7450001 32 33 27
-0.2195061 -0.4118255 1.001 198 181 171
-0.2114993 -0.4068807 0.989 246 220 202
-0.2054994 -0.4056397 0.9860001 251 222 203
-0.1999388 -0.4052226 0.9850001 249 219 204
-0.1943896 -0.4048064 0.984 251 219 204
-0.1892362 -0.405214 0.9850001 243 207 190
-0.1838856 -0.4052111 0.9850001 231 194 180
-0.1790793 -0.406443 0.988 220 187 174
-0.1742407 -0.4076757 0.9910001 198 170 161
-0.125365 -0.3895827 0.947 97 98 104
-0.1241585 -0.4023384 0.978 76 77 81
-0.1171468 -0.3965817 0.964 68 72 74
-0.1107515 -0.3924708 0.9540001 62 65 61
-0.1045754 -0.3887713 0.9450001 48 52 45
-0.098497 -0.3850718 0.936 35 40 29
-0.0895222 -0.3690302 0.897 37 40 28
-0.08248082 -0.3595709 0.874 37 40 26
-0.07693434 -0.3558712 0.8650001 41 43 33
-0.07181954 -0.353817 0.86 35 36 30
-0.06652475 -0.3505286 0.8520001 36 37 31
-0.0615347 -0.3484742 0.8470001 28 32 24
-0.05666607 -0.3468311 0.8430001 24 29 18
-0.0518408 -0.3451879 0.839 20 25 13
-0.04711526 -0.3439559 0.836 23 28 14
-0.04242221 -0.3427238 0.8330001 22 25 11
-0.03776168 -0.3414914 0.83 21 24 10
-0.03317374 -0.3406704 0.8280001 21 24 12
-0.02860744 -0.3398491 0.826 15 17 7
-0.02403362 -0.3386161 0.823 19 19 9
-0.01939725 -0.3357372 0.816 19 19 9
-0.01485522 -0.3332694 0.8100001 20 20 10
-0.01036542 -0.33039 0.803 23 24 12
-0.005951645 -0.3275103 0.7960001 24 25 11
-0.001626169 -0.327099 0.795 20 23 9
0.002688447 -0.3266876 0.794 21 24 12
0.006992196 -0.3262759 0.793 20 23 11
0.01131356 -0.3266868 0.794 19 22 10
0.01560641 -0.3262746 0.793 18 19 7
0.01991347 -0.3262737 0.793 19 21 11
0.02425103 -0.326684 0.794 16 18 8
0.02849149 -0.3258598 0.7920001 17 19 11
0.03279297 -0.3258582 0.7920001 17 19 11
0.03690705 -0.3242107 0.788 17 19 9
0.04113442 -0.3237974 0.7870001 15 17 7
0.04546624 -0.3242067 0.788 18 20 10
0.04980884 -0.3246159 0.789 17 17 9
0.05395656 -0.3237908 0.7870001 15 15 7
0.05800848 -0.322554 0.784 18 18 10
0.06242483 -0.3233743 0.786 11 12 6
0.06677797 -0.3237831 0.7870001 12 13 7
0.07096133 -0.323369 0.786 14 15 9
0.07503805 -0.3225435 0.784 12 13 7
0.07909296 -0.321718 0.7820001 13 12 6
0.08333924 -0.3217153 0.7820001 11 12 6
0.08758547 -0.3217127 0.7820001 11 12 6
0.09183165 -0.3217103 0.7820001 12 11 5
0.09583208 -0.3208851 0.78 11 10 4
0.1000673 -0.3208828 0.78 14 15 9
0.1045701 -0.3217035 0.7820001 8 12 5
0.1088162 -0.3217016 0.7820001 10 11 5
0.1127732 -0.3208773 0.78 16 15 9
0.1171586 -0.3212873 0.781 15 14 8
0.1210887 -0.3204636 0.779 17 17 9
0.125158 -0.3200516 0.7780001 21 21 11
0.1295491 -0.3204628 0.779 21 24 12
0.1342949 -0.3216972 0.7820001 24 27 13
0.1390733 -0.322932 0.785 23 26 14
0.1431543 -0.3225219 0.784 23 26 14
0.1470367 -0.3217011 0.7820001 25 26 14
0.1512846 -0.3217036 0.7820001 27 28 16
0.1551352 -0.320884 0.78 28 29 15
0.1591688 -0.3204766 0.779 27 28 16
0.1634018 -0.3204813 0.779 26 29 17
0.1676353 -0.3204868 0.779 25 26 12
0.1731933 -0.3229618 0.785 22 23 11
0.1763304 -0.3209122 0.78 20 21 9
0.1706169 -0.3032289 0.737 28 30 20
0.1687015 -0.2929516 0.712 24 29 17
0.1682116 -0.285555 0.694 24 27 13
0.1697572 -0.2818622 0.6850001 24 25 11
0.1722188 -0.2798163 0.68 27 28 14
0.1751444 -0.2785943 0.677 25 26 14
0.1777743 -0.2769619 0.673 24 27 15
0.1806314 -0.2757421 0.67 25 26 12
0.1834571 -0.2745236 0.6670001 23 26 12
0.1868124 -0.2741294 0.666 22 25 11
0.1895864 -0.2729133 0.663 22 25 13
0.1926206 -0.2721102 0.661 23 24 10
0.1962284 -0.2721319 0.661 22 23 11
0.1995355 -0.2717435 0.66 23 24 12
0.2031414 -0.2717684 0.66 24 25 13
0.2067493 -0.2717951 0.66 24 25 13
0.2103592 -0.2718235 0.66 19 22 10
0.2146198 -0.2726777 0.6620001 20 21 9
0.2182453 -0.27271 0.6620001 24 25 13
0.2215381 -0.2723324 0.661 25 26 12
0.2255039 -0.2727808 0.6620001 25 26 14
0.2298296 -0.2736437 0.664 27 30 18
0.2348834 -0.2753334 0.668 27 30 18
0.242127 -0.2794994 0.678 38 42 34
0.2531101 -0.2877922 0.698 47 51 43
0.2591632 -0.2903172 0.7040001 36 40 33
0.2525825 -0.2788222 0.6760001 40 44 37
0.2585881 -0.2813519 0.682 52 56 49
0.2977472 -0.319371 0.774 50 54 47
-0.2046231 -0.3706129 0.8890001 120 105 99
-0.2209133 -0.4097879 0.983 120 105 99
-0.2168842 -0.412278 0.989 210 189 177
-0.2106522 -0.4106007 0.9850001 248 220 201
-0.2048813 -0.4097583 0.983 252 222 205
-0.1993359 -0.4093339 0.9820001 250 220 205
-0.1941972 -0.4097442 0.983 251 218 205
-0.1888562 -0.4097387 0.983 247 215 200
-0.1837023 -0.4101509 0.984 241 206 193
-0.1785381 -0.4105639 0.9850001 227 194 183
-0.1735393 -0.4113946 0.987 207 178 173
-0.1292021 -0.406807 0.9760001 97 98 102
-0.1230137 -0.4038909 0.969 64 68 68
-0.1160507 -0.3980573 0.955 64 69 65
-0.1094719 -0.3930575 0.943 60 60 58
-0.1036875 -0.3905588 0.937 53 53 51
-0.09796809 -0.3880601 0.9310001 36 40 33
-0.09121609 -0.3809765 0.914 35 38 26
-0.08257254 -0.3647227 0.8750001 35 40 29
-0.07657596 -0.3588894 0.8610001 35 39 32
-0.07139943 -0.3563907 0.855 33 34 28
-0.06636608 -0.3543088 0.85 36 37 31
-0.06116904 -0.3509763 0.8420001 31 35 28
-0.05639489 -0.3497279 0.839 30 36 29
-0.05165325 -0.3484794 0.836 28 32 24
-0.04688778 -0.3468139 0.832 22 25 13
-0.04231846 -0.3463988 0.831 22 26 9
-0.03766897 -0.34515 0.8280001 21 24 10
-0.03309206 -0.3443177 0.826 22 25 11
-0.02846755 -0.3426517 0.822 21 24 12
-0.02397406 -0.342236 0.821 20 22 12
-0.01942007 -0.3405695 0.817 20 20 10
-0.01494618 -0.3397366 0.8150001 15 17 9
-0.01050689 -0.3393203 0.814 15 17 7
-0.006026114 -0.3359858 0.8060001 19 21 11
-0.001638361 -0.3339017 0.8010001 22 25 13
0.002695085 -0.3318174 0.7960001 20 25 13
0.006983032 -0.3301498 0.7920001 19 24 12
0.01124176 -0.3288988 0.789 24 27 13
0.01550725 -0.3284813 0.788 26 27 13
0.01971162 -0.3272299 0.785 27 28 16
0.023975 -0.327229 0.785 24 26 16
0.02816639 -0.3263942 0.7830001 17 19 9
0.03246022 -0.3268097 0.784 19 21 11
0.03662437 -0.3259746 0.7820001 16 21 10
0.04076673 -0.3251393 0.78 19 24 13
0.0451181 -0.3259713 0.7820001 17 19 9
0.04930175 -0.3255526 0.781 20 20 10
0.05347447 -0.3251339 0.78 17 17 9
0.0575623 -0.3242983 0.7780001 17 16 10
0.06186658 -0.3247131 0.779 16 18 10
0.06643621 -0.3263783 0.7830001 18 20 12
0.07068811 -0.3263762 0.7830001 15 17 9
0.07503567 -0.326791 0.784 16 18 10
0.07919177 -0.3263721 0.7830001 15 16 10
0.0835501 -0.326787 0.784 15 16 10
0.08769528 -0.3263683 0.7830001 15 16 10
0.09194701 -0.3263666 0.7830001 12 13 7
0.09583015 -0.3251145 0.78 14 13 7
0.1000656 -0.3251131 0.78 9 10 4
0.1044348 -0.3255287 0.781 11 12 6
0.1085366 -0.325111 0.78 13 14 8
0.1127722 -0.3251103 0.78 13 12 6
0.117158 -0.3255268 0.781 14 13 7
0.1207775 -0.3238596 0.777 14 16 8
0.1248363 -0.3234433 0.776 16 18 10
0.1295497 -0.3246946 0.779 18 20 12
0.1341242 -0.3255296 0.781 22 24 14
0.1383663 -0.3255316 0.781 25 27 17
0.1418783 -0.3238668 0.777 27 29 19
0.1457233 -0.3230363 0.775 22 24 14
0.1503208 -0.3238738 0.777 23 26 14
0.1545427 -0.3238783 0.777 21 22 10
0.1583565 -0.3230501 0.775 21 21 11
0.1634076 -0.3247236 0.779 17 17 7
0.1682877 -0.3259813 0.7820001 19 19 11
0.1736423 -0.3280737 0.7870001 14 16 8
0.1754349 -0.3234971 0.776 14 16 8
0.1694686 -0.3051639 0.7320001 25 28 16
0.1680006 -0.2955857 0.7090001 28 31 19
0.1677376 -0.2885093 0.692 23 28 16
0.1697689 -0.2856029 0.6850001 21 26 12
0.171725 -0.2826973 0.678 24 27 13
0.1741234 -0.2806266 0.673 23 24 10
0.1775252 -0.2802249 0.6720001 24 27 13
0.1806477 -0.2794075 0.67 26 29 15
0.1831996 -0.2777572 0.666 26 30 13
0.1868315 -0.2777764 0.666 27 29 12
0.1898928 -0.2769629 0.664 26 24 13
0.1932254 -0.2765679 0.663 24 25 13
0.1962518 -0.2757573 0.661 25 26 14
0.1992583 -0.2749482 0.659 25 26 14
0.2031682 -0.2753924 0.66 24 25 13
0.2070912 -0.2758384 0.661 24 27 15
0.2107085 -0.2758691 0.661 24 25 13
0.2143281 -0.2759017 0.661 23 24 12
0.2172906 -0.2751013 0.659 21 22 8
0.2212395 -0.2755554 0.66 23 26 12
0.2258834 -0.2768469 0.663 22 25 13
0.2302168 -0.2777232 0.665 25 28 16
0.2352787 -0.2794376 0.669 27 29 19
0.2432453 -0.284497 0.6810001 38 39 33
0.2546116 -0.2933212 0.702 47 48 42
0.2581125 -0.2929572 0.701 44 43 37
0.2537581 -0.2838179 0.679 43 47 39
0.2529573 -0.2788585 0.6670001 42 46 38
-0.2168957 -0.4176717 0.989 231 207 191
-0.2102346 -0.4151259 0.983 255 230 211
-0.204265 -0.4138484 0.98 255 227 208
-0.1985319 -0.4129945 0.978 254 225 210
-0.1936114 -0.4138307 0.98 255 225 210
-0.1884778 -0.4142457 0.9810001 253 223 209
-0.1831473 -0.4142394 0.9810001 250 219 208
-0.1778173 -0.414234 0.9810001 245 214 203
-0.1731911 -0.4159183 0.9850001 226 198 190
-0.1686922 -0.4180257 0.9900001 186 161 157
-0.128407 -0.4095711 0.97 68 69 73
-0.121997 -0.4057714 0.961 64 69 66
-0.1154417 -0.4011275 0.95 68 73 69
-0.1087738 -0.3956394 0.937 64 64 64
-0.1031324 -0.3935294 0.932 59 59 59
-0.09733485 -0.3905751 0.9250001 40 44 37
-0.09141372 -0.3867764 0.9160001 37 40 28
-0.08398609 -0.3757996 0.89 36 41 29
-0.0768408 -0.3648228 0.864 31 35 27
-0.07114695 -0.3597574 0.8520001 36 38 30
-0.06597377 -0.3568033 0.845 34 36 26
-0.0610945 -0.3551159 0.841 35 37 27
-0.05619141 -0.3530062 0.836 37 39 31
-0.05140437 -0.3513187 0.832 34 35 29
-0.04677344 -0.3504757 0.83 33 35 27
-0.04216417 -0.3496326 0.8280001 28 31 19
-0.03753109 -0.3483671 0.825 21 24 10
-0.03297061 -0.3475237 0.823 21 24 12
-0.02839719 -0.346258 0.8200001 20 23 11
-0.02385631 -0.3449921 0.817 20 23 11
-0.01939552 -0.3445706 0.816 21 23 13
-0.01492723 -0.3437267 0.814 18 20 12
-0.01049356 -0.3433049 0.813 14 18 10
-0.006040818 -0.3411938 0.808 15 17 7
-0.001650565 -0.3407717 0.807 13 18 7
0.002722058 -0.3395048 0.804 13 18 7
0.007044459 -0.3373934 0.799 18 20 12
0.01129829 -0.3348594 0.793 21 21 11
0.01550662 -0.3327476 0.788 24 25 13
0.01971083 -0.3314801 0.785 26 27 15
0.02388243 -0.3302126 0.7820001 25 27 17
0.02809336 -0.3297894 0.781 24 29 18
0.03225199 -0.3289438 0.779 25 30 19
0.03643569 -0.3285204 0.7780001 26 31 20
0.04055622 -0.3276747 0.776 30 35 24
0.04471268 -0.3272511 0.775 29 31 21
0.04898448 -0.3276719 0.776 29 31 21
0.05313 -0.3272482 0.775 30 31 25
0.05748655 -0.3280912 0.777 31 32 26
0.06162655 -0.3276675 0.776 28 30 22
0.06575564 -0.3272438 0.775 29 31 21
0.0700544 -0.3276646 0.776 30 32 22
0.07445969 -0.3285076 0.7780001 27 32 20
0.07838101 -0.3272395 0.775 26 31 20
0.082696 -0.3276605 0.776 28 30 22
0.08702185 -0.3280816 0.777 26 28 18
0.09124116 -0.3280807 0.777 27 30 18
0.09558336 -0.3285022 0.7780001 25 28 16
0.09993645 -0.3289239 0.779 27 27 17
0.1037656 -0.3276569 0.776 26 26 16
0.1079797 -0.3276569 0.776 24 24 14
0.1126277 -0.3289239 0.779 27 27 17
0.1167083 -0.3285024 0.7780001 22 24 16
0.1206228 -0.3276591 0.776 22 24 16
0.1246767 -0.3272384 0.775 28 28 20
0.1288862 -0.3272404 0.775 28 27 21
0.1329243 -0.3268208 0.774 27 28 22
0.1365975 -0.3255572 0.771 27 29 21
0.1406036 -0.3251387 0.77 26 28 18
0.1449753 -0.3255654 0.771 23 25 15
0.1495519 -0.3264151 0.7730001 20 22 14
0.1545484 -0.3281102 0.777 16 16 8
0.158976 -0.3285393 0.7780001 17 16 10
0.1640444 -0.3302362 0.7820001 15 14 8
0.1691569 -0.3319341 0.786 13 12 6
0.1743137 -0.3336331 0.79 15 14 8
0.1754452 -0.3277313 0.776 12 13 7
0.1692479 -0.3087372 0.731 23 28 17
0.1673013 -0.2981903 0.706 23 28 17
0.1672652 -0.291445 0.6900001 25 30 19
0.1695344 -0.2889243 0.684 24 29 18
0.1717394 -0.2864046 0.678 23 26 14
0.1738803 -0.2838858 0.6720001 22 25 11
0.1770137 -0.2830579 0.67 22 25 11
0.1803962 -0.2826538 0.669 21 24 12
0.1837693 -0.282251 0.668 30 31 17
0.1865718 -0.2810045 0.665 29 30 16
0.1896292 -0.2801819 0.663 30 28 17
0.1929578 -0.2797834 0.6620001 26 26 16
0.1959804 -0.2789637 0.66 21 24 12
0.1992854 -0.2785683 0.659 23 26 12
0.203505 -0.2794429 0.661 21 24 12
0.2068087 -0.2790511 0.66 24 24 14
0.2101036 -0.2786611 0.659 23 24 12
0.2143628 -0.2795416 0.661 23 24 12
0.2176571 -0.2791556 0.66 21 24 10
0.2212783 -0.2791946 0.66 19 22 10
0.2255839 -0.280082 0.6620001 23 26 14
0.2309531 -0.2822414 0.6670001 23 28 16
0.2360286 -0.2839806 0.671 23 28 17
0.2440095 -0.2891092 0.683 33 35 27
0.2521262 -0.2942423 0.6950001 40 42 32
0.2508034 -0.2883702 0.6810001 43 45 35
0.2493301 -0.2824986 0.6670001 38 42 34
0.2530167 -0.2825581 0.6670001 45 46 40
-0.2855781 -0.3388236 0.79 31 35 17
-0.2207163 -0.4200909 0.9820001 187 163 147
-0.2162514 -0.4217868 0.9860001 249 222 207
-0.2098191 -0.4196339 0.9810001 255 235 217
-0.2036507 -0.4179104 0.9770001 254 228 210
-0.1979326 -0.4170435 0.975 255 226 211
-0.1930275 -0.4178888 0.9770001 255 226 211
-0.1879091 -0.4183074 0.978 254 223 212
-0.1825939 -0.4182993 0.978 255 227 218
-0.1769168 -0.4174368 0.9760001 250 220 211
-0.1724928 -0.4195691 0.9810001 236 206 197
-0.1680149 -0.421702 0.9860001 216 186 172
-0.1335375 -0.4144133 0.969 97 98 104
-0.1273483 -0.4114185 0.9620001 67 69 71
-0.1214891 -0.4092794 0.957 58 62 62
-0.1147123 -0.4037193 0.9440001 69 73 73
-0.1083089 -0.3990149 0.933 62 64 64
-0.1024676 -0.3960215 0.9260001 62 64 64
-0.09670247 -0.3930283 0.919 38 44 37
-0.09081379 -0.3891799 0.91 35 37 27
-0.08455104 -0.3831933 0.896 33 38 26
-0.07799567 -0.3750684 0.877 33 38 27
-0.07122914 -0.3648053 0.853 36 38 28
-0.06573821 -0.3601019 0.8420001 35 37 27
-0.06087523 -0.3583923 0.8380001 35 37 27
-0.05592124 -0.3558272 0.832 34 36 28
-0.05115596 -0.3541176 0.8280001 34 35 29
-0.0465468 -0.3532633 0.826 28 32 24
-0.04201025 -0.3528365 0.825 28 32 24
-0.03734806 -0.3511268 0.821 37 39 31
-0.03276934 -0.3498445 0.818 28 30 20
-0.02829243 -0.3494177 0.817 19 24 13
-0.02379717 -0.348563 0.8150001 19 21 11
-0.01929984 -0.3472805 0.812 20 22 12
-0.01489008 -0.3472809 0.812 16 18 8
-0.0104545 -0.3464259 0.8100001 19 21 11
-0.006033146 -0.3451431 0.807 17 19 9
-0.00164642 -0.3442879 0.8050001 14 18 10
0.002725356 -0.3442878 0.8050001 15 17 9
0.00707068 -0.3430046 0.802 15 14 8
0.01136917 -0.3412936 0.798 14 13 7
0.01566355 -0.3404379 0.7960001 13 12 6
0.01991108 -0.3391543 0.793 16 16 8
0.02412601 -0.3378707 0.79 18 20 12
0.02830834 -0.336587 0.7870001 19 21 11
0.03233384 -0.3340201 0.781 21 23 13
0.03643466 -0.3327362 0.7780001 19 21 11
0.04060738 -0.3323077 0.777 22 24 16
0.04476921 -0.331879 0.776 25 27 19
0.04885703 -0.3310227 0.774 26 26 16
0.05292311 -0.3301664 0.772 26 26 16
0.05718939 -0.3305931 0.7730001 28 28 18
0.06146649 -0.3310198 0.774 29 31 21
0.06541507 -0.3297358 0.771 27 29 19
0.06951162 -0.3293073 0.77 31 33 23
0.07359729 -0.3288789 0.7690001 28 30 20
0.07767211 -0.3284505 0.768 28 31 19
0.08194923 -0.3288777 0.7690001 28 31 17
0.08623724 -0.3293051 0.77 29 32 20
0.09018386 -0.3284496 0.768 26 28 18
0.09435456 -0.3284497 0.768 27 30 18
0.09865361 -0.3288777 0.7690001 29 30 18
0.102295 -0.3271677 0.765 27 28 16
0.1064497 -0.3271687 0.765 29 30 18
0.1111829 -0.3288807 0.7690001 26 29 17
0.1152097 -0.3284548 0.768 24 26 16
0.1193812 -0.328457 0.768 24 24 16
0.1237138 -0.3288874 0.7690001 24 24 16
0.127725 -0.3284629 0.768 22 24 16
0.1320691 -0.3288944 0.7690001 21 21 11
0.1364244 -0.3293265 0.77 21 21 11
0.1409736 -0.330187 0.772 21 21 13
0.145733 -0.3314759 0.775 15 15 7
0.150719 -0.3331934 0.779 16 15 9
0.1553512 -0.3340563 0.781 13 12 6
0.1598014 -0.3344925 0.7820001 11 10 4
0.1640533 -0.3345017 0.7820001 10 11 5
0.1687365 -0.3353676 0.784 12 13 7
0.1738835 -0.3370901 0.788 12 13 7
0.1743267 -0.3298301 0.771 14 15 9
0.1683342 -0.3110198 0.7270001 23 28 17
0.1668404 -0.3011935 0.7040001 25 31 23
0.1675216 -0.295646 0.691 22 27 16
0.1693016 -0.2922384 0.683 27 30 18
0.171249 -0.2892596 0.6760001 26 29 17
0.1741563 -0.2879935 0.673 28 29 15
0.176768 -0.2863005 0.669 26 27 13
0.1801465 -0.2858928 0.668 24 25 13
0.1829653 -0.2846303 0.665 23 26 14
0.1860334 -0.2837973 0.663 22 27 15
0.1896535 -0.2838218 0.663 20 23 11
0.1929837 -0.2834198 0.6620001 25 26 14
0.1960079 -0.2825912 0.66 23 26 14
0.1990122 -0.2817642 0.6580001 21 24 12
0.2029204 -0.2822237 0.659 21 21 11
0.2071551 -0.2831135 0.661 27 27 17
0.2101385 -0.2822919 0.659 27 25 15
0.2143999 -0.2831859 0.661 24 25 13
0.2173664 -0.2823683 0.659 25 26 14
0.2213197 -0.2828383 0.66 26 27 15
0.2259684 -0.2841679 0.663 23 26 14
0.2309995 -0.2859289 0.6670001 20 25 14
0.2367815 -0.2885504 0.673 31 36 25
0.2447769 -0.2937484 0.6850001 35 39 32
0.2521825 -0.2980932 0.6950001 41 45 37
0.2630177 -0.3063034 0.714 40 44 37
0.2467724 -0.2831967 0.66 39 43 36
-0.1958388 -0.36007 0.831 206 178 167
-0.1874009 -0.3526869 0.814 255 232 216
-0.2218573 -0.4276246 0.987 224 197 182
-0.2158284 -0.4263072 0.984 255 232 216
-0.2096195 -0.4245582 0.98 255 236 220
-0.2032467 -0.4223775 0.975 255 235 220
-0.1971323 -0.4206314 0.9710001 253 224 209
-0.1922477 -0.4214857 0.973 254 224 210
-0.1873422 -0.422341 0.975 255 224 213
-0.1820423 -0.4223312 0.975 255 225 216
-0.1761992 -0.4210228 0.9720001 250 220 211
-0.1717961 -0.4231806 0.9770001 234 203 194
