ply 
format ascii 1.0 
element vertex 1240
property float x 
property float y 
property float z 
property uchar red 
property uchar green 
property uchar blue 
end_header 
-0.2114926 0.1209744 0.6900001 192 195 199
-0.2129694 0.1336747 0.762 206 146 141
-0.2211833 0.1415861 0.807 200 137 135
-0.2297158 0.1500262 0.855 190 127 125
-0.2340428 0.1560117 0.8890001 186 123 121
-0.2230454 0.1518192 0.8650001 175 119 108
-0.2148311 0.1493811 0.851 177 125 106
-0.2094848 0.1488737 0.848 181 138 98
-0.2048948 0.148893 0.848 180 140 112
-0.2003036 0.1489123 0.848 183 149 122
-0.1957113 0.1489317 0.848 169 142 113
-0.1911179 0.1489511 0.848 156 130 98
-0.1863032 0.1487948 0.8470001 156 130 98
-0.1817127 0.1488142 0.8470001 149 123 95
-0.1771208 0.1488334 0.8470001 143 117 89
-0.1723239 0.1486768 0.846 140 114 82
-0.1679332 0.1488715 0.8470001 143 113 78
-0.1639158 0.1494177 0.85 147 115 80
-0.1594897 0.1496122 0.851 142 109 78
-0.1555973 0.150334 0.855 142 111 80
-0.1511304 0.1505282 0.8560001 138 108 75
-0.1469935 0.1510739 0.859 131 105 73
-0.1428226 0.1516195 0.862 132 105 77
-0.1384574 0.1519889 0.864 126 99 70
-0.1345334 0.1528858 0.869 128 100 68
-0.1305538 0.1537826 0.874 133 106 70
-0.1262304 0.1543272 0.877 145 111 75
-0.1215961 0.1545195 0.878 157 122 81
-0.1169495 0.1547115 0.8790001 164 127 86
-0.1125459 0.155255 0.882 176 138 97
-0.1077418 0.15527 0.882 187 149 108
-0.1034033 0.1559888 0.886 194 156 115
-0.09846374 0.1558267 0.8850001 196 160 125
-0.09374545 0.1560163 0.886 208 179 150
-0.08931616 0.1567336 0.89 216 194 168
-0.08446252 0.156746 0.89 178 159 139
-0.07978669 0.1571101 0.892 54 42 32
-0.07500402 0.1572974 0.8930001 53 50 44
-0.07005239 0.1571318 0.892 51 55 48
-0.06496461 0.1566132 0.8890001 54 54 52
-0.06017918 0.1567986 0.89 51 51 49
-0.05519555 0.1564548 0.8880001 54 55 51
-0.05000622 0.1554054 0.882 56 59 55
-0.04518915 0.1554125 0.882 62 67 64
-0.04018838 0.1547141 0.878 77 79 81
-0.03535168 0.1545436 0.877 86 88 90
-0.03049056 0.1541961 0.8750001 87 93 95
-0.02565087 0.1538479 0.873 92 98 101
-0.02078485 0.1531465 0.869 101 106 112
-0.01603606 0.1531493 0.869 101 107 110
-0.01128704 0.1531514 0.869 109 115 121
-0.006530341 0.1529765 0.868 115 121 127
-0.001786537 0.1529772 0.868 120 131 136
0.002960699 0.1531533 0.869 118 129 132
0.007736568 0.1536812 0.872 93 103 100
0.01250211 0.1536797 0.872 96 106 103
0.01732687 0.1542061 0.8750001 96 105 98
0.02218419 0.1547318 0.878 99 108 101
0.02731982 0.1566666 0.8890001 109 118 107
0.03478447 0.1471411 0.835 115 123 116
0.05461404 0.1515195 0.86 100 108 101
0.06579203 0.1680716 0.9540001 110 118 111
0.05583677 0.1231316 0.6990001 220 228 221
0.06818478 0.1407373 0.799 215 223 216
0.8726779 0.2742237 1.559 254 254 254
0.8792539 0.2736238 1.555 254 254 252
0.8738149 0.2693321 1.53 251 253 255
0.8738844 0.2668033 1.515 133 141 157
0.8778856 0.2655112 1.507 132 151 173
0.8800568 0.2636946 1.496 138 161 184
0.8833169 0.2622349 1.487 129 150 172
0.8901001 0.2618381 1.484 125 141 157
0.8950609 0.2609173 1.478 118 134 149
0.8999826 0.2600017 1.472 110 127 139
0.9005448 0.2578541 1.459 108 126 134
0.9047258 0.2567713 1.452 108 127 139
0.9138898 0.2571094 1.453 103 121 137
0.9211956 0.2569233 1.451 126 143 163
0.9265915 0.2562123 1.446 131 142 165
0.9326117 0.2556845 1.442 76 83 103
0.9386228 0.2551633 1.438 89 103 122
0.9439673 0.2544709 1.433 126 142 165
0.9472984 0.2532518 1.425 134 150 174
0.9532589 0.2527499 1.421 130 146 172
0.9619226 0.2529671 1.421 149 162 186
0.9706324 0.2531929 1.421 132 146 166
0.9738761 0.2520005 1.413 100 114 131
-0.2133306 0.1122676 0.661 244 250 252
-0.2353389 0.1404019 0.826 173 138 135
-0.2332275 0.1475962 0.868 197 139 138
-0.2246119 0.1481445 0.8710001 177 122 107
-0.2161126 0.1456122 0.8560001 178 130 104
-0.2114804 0.1456313 0.8560001 180 139 112
-0.2066055 0.1454804 0.855 182 144 116
-0.2019765 0.1454996 0.855 184 146 118
-0.1966539 0.1450083 0.8520001 176 142 115
-0.1924895 0.145368 0.854 163 135 103
-0.1878623 0.1453873 0.854 151 126 90
-0.1823755 0.1447254 0.85 146 121 89
-0.177349 0.1444039 0.848 140 114 86
-0.1725466 0.1442524 0.8470001 136 110 78
-0.1683485 0.1446118 0.849 137 110 74
-0.1643202 0.1451415 0.8520001 139 107 74
-0.1602579 0.145671 0.855 140 107 76
-0.1563437 0.1463709 0.859 138 107 76
-0.1518548 0.1465595 0.86 129 101 68
-0.1476959 0.1470887 0.863 120 95 63
-0.1438344 0.1479586 0.868 123 97 69
-0.1394363 0.148317 0.8700001 122 93 65
-0.1353247 0.1490161 0.874 129 98 69
-0.1313175 0.1498856 0.8790001 139 105 70
-0.1269666 0.1504137 0.882 154 119 78
-0.1220276 0.1502593 0.881 161 127 84
-0.1173643 0.1504455 0.882 169 132 91
-0.1129439 0.1509725 0.8850001 173 136 95
-0.108123 0.1509873 0.8850001 184 145 107
-0.1034175 0.1511723 0.886 188 150 114
-0.09869991 0.1513567 0.887 188 153 122
-0.09397019 0.1515406 0.8880001 202 176 150
-0.08922836 0.151724 0.8890001 165 147 131
-0.0844745 0.1519068 0.89 73 62 49
-0.079977 0.1526012 0.8940001 52 49 43
-0.07501481 0.1524415 0.8930001 46 45 41
-0.06990544 0.1519397 0.89 52 50 48
-0.06490098 0.151608 0.8880001 51 49 47
-0.05998511 0.1514463 0.887 51 51 51
-0.05483067 0.1506009 0.882 49 52 48
-0.0498435 0.1500963 0.8790001 45 48 45
-0.04488841 0.149591 0.876 53 55 55
-0.04005703 0.1494264 0.8750001 66 68 70
-0.03535696 0.1497736 0.877 80 82 84
-0.03035573 0.1487537 0.8710001 86 92 94
-0.02547841 0.1480748 0.867 90 96 98
-0.02071621 0.1479074 0.8660001 97 103 105
-0.0159462 0.1475686 0.864 103 109 112
-0.01118482 0.1470582 0.8610001 106 112 118
-0.006478656 0.1470595 0.8610001 104 113 118
-0.001772397 0.1470601 0.8610001 111 120 122
0.002933887 0.14706 0.8610001 114 123 128
0.007640129 0.1470592 0.8610001 129 138 141
0.01238928 0.1475701 0.864 135 142 144
0.01715124 0.1479096 0.8660001 137 145 138
0.02188428 0.1479066 0.8660001 134 140 132
0.02670921 0.1484154 0.869 248 255 249
0.03153035 0.1487526 0.8710001 248 255 251
0.03574794 0.1465275 0.858 193 200 199
0.04048276 0.1466926 0.859 206 215 210
0.05258962 0.1413786 0.8280001 201 210 205
0.06546338 0.1309301 0.767 215 224 219
0.07852416 0.1317531 0.772 246 253 250
0.09184283 0.1462472 0.8570001 246 253 250
0.1186299 0.1341942 0.7870001 215 222 218
0.8776161 0.2672236 1.568 254 254 254
0.8774536 0.2645958 1.552 254 254 252
0.8737072 0.2609479 1.53 242 245 249
0.8737722 0.2584966 1.515 129 143 160
0.8766038 0.256902 1.505 130 153 176
0.8793468 0.2553114 1.495 131 154 177
0.8831899 0.2540665 1.487 126 142 165
0.8887681 0.2533388 1.482 121 135 152
0.8943174 0.2526163 1.477 114 129 144
0.8998389 0.2518988 1.472 106 123 135
0.901013 0.249988 1.46 107 124 134
0.9051942 0.2489377 1.453 110 128 136
0.9124709 0.2487496 1.451 104 120 135
0.9210278 0.2489107 1.451 117 132 151
0.9257764 0.2480487 1.445 143 154 175
0.9324306 0.2477077 1.442 110 116 133
0.9397401 0.2475449 1.44 82 95 108
0.9431137 0.2463568 1.432 96 110 127
0.9457676 0.2450019 1.423 108 122 139
0.9550621 0.2453754 1.424 115 130 149
0.9637358 0.2455847 1.424 117 131 150
0.9710896 0.2454569 1.422 113 124 139
0.9770884 0.2449914 1.418 87 97 106
-0.2261784 0.1444036 0.877 174 125 104
-0.2226962 0.1452462 0.882 171 123 97
-0.2149585 0.1432892 0.8700001 176 131 103
-0.2090412 0.1424849 0.8650001 176 136 108
-0.2038856 0.1421746 0.863 182 145 114
-0.1982888 0.1415347 0.859 176 143 114
-0.192734 0.1408946 0.855 164 136 104
-0.1878814 0.1407488 0.854 153 128 95
-0.182609 0.1402732 0.851 138 113 81
-0.1775769 0.1399622 0.849 132 106 74
-0.1729726 0.1399808 0.849 130 104 72
-0.1689619 0.140494 0.8520001 136 108 75
-0.1649172 0.1410071 0.855 139 109 74
-0.161026 0.141685 0.859 140 110 77
-0.1569079 0.142198 0.862 131 104 68
-0.1520493 0.1420509 0.8610001 125 99 66
-0.1478847 0.1425635 0.864 119 94 61
-0.144349 0.143736 0.8710001 119 93 61
-0.1402549 0.1444134 0.8750001 120 90 57
-0.135961 0.1449255 0.878 137 103 68
-0.1322306 0.1460976 0.8850001 148 113 74
-0.1274147 0.146114 0.8850001 154 119 80
-0.1225975 0.1461299 0.8850001 161 126 85
-0.1176457 0.1459802 0.8840001 165 131 88
-0.1129588 0.1461603 0.8850001 170 133 91
-0.1082596 0.14634 0.886 176 139 98
-0.1034315 0.1463541 0.886 183 147 112
-0.09871333 0.1465328 0.887 184 152 125
-0.09398307 0.1467111 0.8880001 162 137 115
-0.0892407 0.1468888 0.8890001 78 65 52
-0.08448626 0.1470659 0.89 53 48 38
-0.0797198 0.1472425 0.891 46 45 39
-0.07485737 0.1472533 0.891 48 46 44
-0.06960115 0.1464371 0.886 47 45 43
-0.06469096 0.1462812 0.8850001 46 44 42
-0.05952027 0.1454636 0.8800001 42 45 42
-0.0545277 0.1449758 0.877 43 49 42
-0.04962388 0.1446527 0.8750001 46 51 47
-0.0448437 0.1446594 0.8750001 51 54 50
-0.03997131 0.1443349 0.873 63 63 61
-0.03516054 0.144175 0.872 76 79 76
-0.03029048 0.1436838 0.869 82 87 84
-0.02542338 0.1430264 0.8650001 85 89 89
-0.02069535 0.1430298 0.8650001 83 87 89
-0.01589318 0.1423711 0.8610001 86 92 95
-0.01109553 0.1412155 0.854 91 97 99
-0.00640436 0.1407207 0.851 98 104 106
-0.001752072 0.1407213 0.851 99 106 109
0.002907058 0.141052 0.853 102 111 116
0.007579138 0.1412166 0.854 103 112 117
0.0122477 0.1412151 0.854 114 123 128
0.01697551 0.141709 0.8570001 129 136 133
0.02171059 0.1420369 0.859 142 148 141
0.02643649 0.1421988 0.86 166 174 166
0.03120914 0.1425253 0.862 191 202 195
0.03612821 0.1433471 0.867 210 223 218
0.04100715 0.1438375 0.8700001 205 220 216
0.04681246 0.1471377 0.89 208 223 219
0.05086156 0.1448162 0.876 207 218 213
0.0582918 0.1396761 0.845 208 217 210
0.060647 0.1254446 0.7590001 213 222 217
0.07221621 0.1398138 0.846 210 219 214
0.09014047 0.1389429 0.841 242 249 245
0.8719245 0.2569942 1.558 254 254 254
0.8728319 0.254779 1.544 254 254 254
0.8713202 0.2519068 1.526 246 248 250
0.8736649 0.2501933 1.515 138 150 167
0.8776565 0.2489791 1.507 132 152 176
0.8798183 0.2472732 1.496 128 149 171
0.8842561 0.2462326 1.489 122 138 154
0.892239 0.2461891 1.488 118 133 146
0.8953959 0.2448268 1.479 113 128 141
0.899701 0.2438001 1.472 104 120 130
0.8996361 0.2416179 1.458 113 130 136
0.9038001 0.2405999 1.451 112 129 135
0.9135737 0.24108 1.453 108 124 139
0.9234051 0.2415669 1.455 107 123 139
0.9268902 0.2403995 1.447 139 153 172
0.9309638 0.2394032 1.44 115 122 142
0.9376018 0.2390776 1.437 68 79 94
0.9409513 0.237926 1.429 98 112 129
0.9449097 0.2369462 1.422 113 127 146
0.9535198 0.2371392 1.422 110 125 144
0.9648801 0.2380076 1.426 117 131 148
0.9729209 0.2380498 1.425 112 121 134
0.9768636 0.2370965 1.418 84 91 102
-0.2214609 0.1338912 0.841 175 136 112
-0.207885 0.1283363 0.8060001 176 132 108
-0.2171602 0.136953 0.86 176 132 108
-0.2152247 0.1387236 0.8710001 179 135 109
-0.2102687 0.1385833 0.8700001 178 138 111
-0.2043772 0.1378057 0.8650001 182 145 114
-0.1985386 0.1370279 0.86 176 146 113
-0.1925275 0.1360906 0.854 164 139 106
-0.1879001 0.1361092 0.854 154 131 99
-0.1828422 0.1358089 0.8520001 136 113 81
-0.1784321 0.1359868 0.853 131 105 79
-0.1738061 0.1360051 0.853 128 103 67
-0.1693769 0.1361828 0.854 137 110 73
-0.1658999 0.1371577 0.86 133 106 70
-0.1619814 0.1378137 0.864 136 108 75
-0.1572898 0.1378315 0.864 125 99 67
-0.1527733 0.1380087 0.8650001 117 91 62
-0.1491004 0.1389834 0.8710001 111 85 57
-0.1455265 0.1401177 0.878 113 85 53
-0.1417146 0.1410923 0.8840001 135 98 66
-0.1376812 0.1419072 0.8890001 149 112 67
-0.1331435 0.1422429 0.891 158 120 78
-0.1280067 0.1419397 0.8890001 163 125 84
-0.1230287 0.1417957 0.8880001 160 122 86
-0.117927 0.1414915 0.886 167 130 89
-0.1132287 0.141666 0.887 166 131 90
-0.1086404 0.1419997 0.8890001 175 140 101
-0.1037954 0.1420135 0.8890001 177 144 113
-0.09883779 0.141867 0.8880001 162 138 110
-0.09410154 0.1420396 0.8890001 101 86 71
-0.08935317 0.1422116 0.89 49 44 38
-0.08440285 0.1420635 0.8890001 47 46 40
-0.07955179 0.1420746 0.8890001 44 45 39
-0.07461565 0.1419253 0.8880001 41 42 38
-0.06968941 0.1417753 0.887 46 45 41
-0.06426138 0.1405059 0.8790001 47 48 42
-0.05919042 0.139875 0.8750001 46 50 43
-0.05447324 0.1400428 0.876 46 50 43
-0.04963093 0.1398903 0.8750001 41 45 38
-0.04474758 0.1395771 0.873 46 47 41
-0.03979387 0.1389436 0.869 57 58 54
-0.03484297 0.1381494 0.864 68 71 68
-0.03012053 0.138154 0.864 79 84 81
-0.02542705 0.1383179 0.8650001 79 86 83
-0.02067441 0.1381613 0.864 86 90 90
-0.01572933 0.136245 0.8520001 88 90 90
-0.01103217 0.1357671 0.849 87 90 87
-0.006352602 0.1349688 0.844 87 91 91
-0.001735853 0.1348095 0.8430001 92 99 102
0.002880211 0.1351292 0.845 97 103 109
0.007509228 0.1352884 0.846 98 104 110
0.01212038 0.1351271 0.845 105 111 117
0.01679967 0.1356047 0.848 110 117 120
0.0214104 0.1354421 0.8470001 130 138 135
0.02604062 0.1354387 0.8470001 141 149 142
0.03081531 0.1360742 0.851 136 145 134
0.03575831 0.1371888 0.858 136 147 140
0.0405416 0.1375032 0.86 136 150 142
0.04545138 0.1381366 0.864 130 141 134
0.05081071 0.1398885 0.8750001 134 145 138
0.05412941 0.1362042 0.8520001 146 158 147
0.0524355 0.1214897 0.7600001 144 152 144
0.06001075 0.128835 0.8060001 149 157 149
0.06289304 0.1257895 0.7870001 149 157 149
0.07325067 0.137128 0.858 149 157 149
0.08058047 0.1265497 0.7920001 203 211 203
0.09712035 0.1447525 0.906 149 157 149
0.1121267 0.1331838 0.8340001 210 221 214
0.8536232 0.245676 1.541 254 254 254
0.8667979 0.2470368 1.549 254 254 254
0.8716071 0.2460102 1.542 254 254 254
0.8683674 0.2427531 1.521 252 253 255
0.8706793 0.2410951 1.51 150 162 179
0.8758024 0.2402392 1.504 136 155 175
0.8797065 0.2390679 1.496 124 144 160
0.882952 0.2377409 1.487 121 139 154
0.8897187 0.2373776 1.484 117 134 146
0.8946636 0.2365391 1.478 112 127 140
0.8989578 0.2355452 1.471 105 122 132
0.9013503 0.2340751 1.461 104 122 128
0.9061491 0.2332503 1.455 105 122 128
0.9146826 0.2333927 1.455 100 115 128
0.9245191 0.2338624 1.457 104 118 135
0.9286509 0.2328933 1.45 122 136 153
0.9314435 0.2316077 1.441 114 124 143
0.9354717 0.2306484 1.434 60 70 87
0.9394554 0.2296943 1.427 81 96 109
0.9480461 0.2298731 1.427 108 122 139
0.9607015 0.2310264 1.433 107 123 139
0.9673849 0.2307364 1.43 101 115 132
0.9740773 0.2304533 1.427 89 96 109
0.9821578 0.2305005 1.426 71 75 85
-0.2068248 0.1259752 0.8190001 183 145 118
-0.2061 0.1283002 0.8340001 186 151 122
-0.2095624 0.1333954 0.867 185 152 123
-0.2041596 0.1329523 0.864 177 145 118
-0.1985572 0.1323552 0.86 166 140 108
-0.1934478 0.1320658 0.858 154 132 96
-0.1881386 0.1316223 0.855 144 122 86
-0.1835044 0.1316406 0.855 128 106 72
-0.1792872 0.1319666 0.8570001 125 103 67
-0.1746393 0.1319847 0.8570001 125 101 65
-0.1703866 0.1323106 0.859 132 105 69
-0.1670754 0.1334068 0.8660001 129 102 66
-0.1629367 0.1338867 0.869 123 98 62
-0.1583997 0.1340584 0.8700001 109 84 51
-0.154557 0.1348462 0.8750001 108 81 53
-0.1508295 0.1357882 0.881 110 83 55
-0.1470353 0.13673 0.887 122 88 61
-0.143495 0.1379802 0.895 141 104 72
-0.1387819 0.1381509 0.896 158 118 77
-0.1337574 0.138013 0.895 160 121 76
-0.1287424 0.1378746 0.8940001 164 124 82
-0.1237367 0.1377358 0.8930001 158 120 79
-0.1184743 0.137288 0.89 166 129 88
-0.1136261 0.1373024 0.89 169 133 97
-0.1087765 0.1373164 0.89 165 133 100
-0.1039256 0.1373299 0.89 162 138 102
-0.09918462 0.1374973 0.891 118 106 87
-0.09432563 0.1375098 0.891 49 44 37
-0.08886296 0.1365957 0.8850001 45 46 42
-0.08431917 0.1370701 0.8880001 43 44 40
-0.07938349 0.1369266 0.887 40 41 35
-0.07437363 0.1366281 0.8850001 41 43 35
-0.06899168 0.135557 0.878 45 46 40
-0.06397771 0.1351028 0.8750001 48 49 43
-0.05906325 0.1348023 0.873 46 47 41
-0.05435639 0.1349645 0.874 42 46 39
-0.04963783 0.1351261 0.8750001 43 44 38
-0.04460003 0.1343604 0.8700001 53 54 48
-0.03961624 0.133594 0.8650001 62 65 61
-0.03472687 0.1329813 0.8610001 64 67 64
-0.03012478 0.1334492 0.864 66 71 68
-0.02540125 0.1334531 0.864 71 78 74
-0.02043802 0.1319117 0.854 74 81 78
-0.01562077 0.1306785 0.846 84 91 90
-0.01100774 0.1308348 0.8470001 86 93 92
-0.006361031 0.1305271 0.845 93 97 97
-0.001725803 0.1294464 0.8380001 96 102 104
0.002839712 0.1286739 0.8330001 95 101 104
0.007377133 0.1283643 0.831 102 108 111
0.0119643 0.1288263 0.8340001 106 111 117
0.01658409 0.1292877 0.837 101 110 115
0.02118589 0.1294395 0.8380001 104 114 121
0.02576756 0.1294363 0.8380001 124 133 138
0.03045749 0.1298957 0.841 129 137 134
0.03526314 0.1306634 0.846 121 130 123
0.0400758 0.131276 0.85 114 123 112
0.04487897 0.1317334 0.853 123 133 124
0.04983045 0.1324991 0.858 124 134 123
0.05451814 0.1324919 0.858 124 132 124
0.05920506 0.1324842 0.858 124 133 122
0.07035747 0.1272085 0.8240001 138 145 134
0.06749679 0.1146951 0.743 137 145 137
0.09552493 0.1375068 0.891 156 164 156
0.864474 0.2379508 1.545 254 254 254
0.8681259 0.2366499 1.536 254 254 254
0.8659903 0.2338114 1.517 252 253 255
0.8700049 0.2326714 1.509 157 168 181
0.8751177 0.2318438 1.503 136 154 170
0.8784238 0.2305573 1.494 128 146 162
0.882247 0.229429 1.486 113 129 145
0.8872044 0.2286135 1.48 108 122 139
0.8939371 0.2282661 1.477 99 114 127
0.9006645 0.2279236 1.474 101 117 127
0.9036864 0.2266578 1.465 105 121 130
0.907258 0.2255509 1.457 98 114 123
0.9145401 0.2253777 1.455 102 118 128
0.9250048 0.2259851 1.458 101 116 131
0.9316981 0.2256686 1.455 113 128 143
0.9332225 0.2241161 1.444 122 128 145
0.937915 0.2233442 1.438 72 79 92
0.9419168 0.2224221 1.431 74 84 91
0.9498603 0.2224384 1.43 77 92 105
0.9638664 0.2238624 1.438 92 108 123
0.9705732 0.2235818 1.435 97 109 126
0.9752416 0.22284 1.429 87 94 107
0.9819494 0.2225723 1.426 65 70 76
-0.2306128 0.1272596 0.858 123 131 124
-0.223258 0.1311705 0.8840001 184 158 130
-0.198209 0.1190199 0.802 178 149 121
-0.2161075 0.1326918 0.8940001 177 148 120
-0.2051232 0.1288509 0.868 165 138 109
-0.1992682 0.1281268 0.863 156 131 99
-0.1945934 0.1281449 0.863 142 120 86
-0.1892569 0.1277175 0.86 138 119 81
-0.1845956 0.1277354 0.86 119 97 63
-0.1805604 0.1281989 0.863 118 93 60
-0.1762874 0.1285138 0.8650001 125 100 68
-0.1725864 0.1292744 0.8700001 128 102 70
-0.1690225 0.1301837 0.876 121 95 63
-0.1644543 0.1303498 0.877 112 87 55
-0.1600558 0.1306645 0.8790001 107 81 52
-0.1565173 0.1317223 0.886 112 80 53
-0.1532436 0.1330775 0.895 131 96 67
-0.1493731 0.1339866 0.901 148 111 79
-0.144153 0.1337058 0.899 160 122 86
-0.1391079 0.1335733 0.8980001 163 126 85
-0.1342217 0.1335892 0.8980001 167 128 83
-0.129478 0.1337535 0.899 162 124 82
-0.1243061 0.133471 0.897 163 128 87
-0.1192876 0.1333369 0.896 165 131 88
-0.1144063 0.1333511 0.896 162 127 86
-0.1091568 0.1329183 0.8930001 161 136 104
-0.104289 0.1329316 0.8930001 119 112 92
-0.09930859 0.1327955 0.892 51 46 40
-0.09444363 0.1328077 0.892 43 44 38
-0.08907531 0.1320749 0.887 44 45 39
-0.08433016 0.1322349 0.8880001 38 42 35
-0.0792149 0.1317987 0.8850001 39 40 34
-0.07387917 0.1309151 0.8790001 40 44 37
-0.06868652 0.1301797 0.874 43 47 40
-0.06398626 0.1303374 0.8750001 42 46 39
-0.0590712 0.1300476 0.873 44 48 41
-0.05430153 0.1300552 0.873 41 42 36
-0.04930414 0.1294662 0.869 49 50 46
-0.04440102 0.1290255 0.8660001 62 63 59
-0.03943844 0.1282862 0.8610001 55 55 55
-0.03469129 0.1281422 0.86 63 63 63
-0.03009405 0.1285936 0.863 67 70 67
-0.02511071 0.1272563 0.854 76 83 80
-0.02036903 0.1268124 0.851 86 93 92
-0.01560446 0.1259207 0.845 94 101 100
-0.0108273 0.1241343 0.8330001 93 99 101
-0.006241451 0.1235394 0.8290001 89 96 95
-0.001711624 0.1238379 0.831 83 90 89
0.002819649 0.1232418 0.827 88 95 97
0.007316006 0.122794 0.8240001 88 95 97
0.01183683 0.1229417 0.825 94 100 102
0.01636841 0.1230888 0.826 93 100 103
0.02091068 0.1232353 0.827 98 104 110
0.02552509 0.1236792 0.83 100 108 115
0.03020814 0.1242714 0.8340001 119 128 131
0.03476772 0.124267 0.8340001 191 204 200
0.03946826 0.124709 0.837 229 240 233
0.0444115 0.1257463 0.844 233 243 234
0.04919826 0.126187 0.8470001 234 242 235
0.05408065 0.126776 0.851 225 233 226
0.05990314 0.1293009 0.868 221 229 221
0.06354944 0.1184109 0.795 212 218 210
0.07275786 0.1268915 0.8520001 208 214 206
0.08631272 0.1414761 0.95 212 218 210
0.8688682 0.2306937 1.553 254 254 254
0.8680403 0.2282497 1.536 254 254 254
0.8681846 0.2261057 1.521 250 253 255
0.8693352 0.2242618 1.508 145 155 172
0.8738558 0.2233137 1.501 130 147 166
0.8783218 0.2223695 1.494 115 133 149
0.8827343 0.2214291 1.487 119 137 153
0.8882923 0.2207907 1.482 115 131 146
0.8962415 0.2207528 1.481 103 119 134
0.8993216 0.219527 1.472 110 125 138
0.9010936 0.2180065 1.461 107 124 130
0.905882 0.2172361 1.455 100 118 126
0.9125184 0.2169185 1.452 103 121 129
0.9242279 0.2178018 1.457 102 119 129
0.9334706 0.2180937 1.458 110 125 140
0.9356538 0.2167453 1.448 112 122 141
0.9410164 0.2161499 1.443 83 91 107
0.9443843 0.2151101 1.435 70 80 89
0.9556659 0.2158752 1.439 83 97 106
0.967708 0.2167981 1.444 89 105 115
0.9730921 0.2162264 1.439 92 102 111
0.9757314 0.2150591 1.43 73 78 84
0.9817497 0.2146493 1.426 51 54 58
-0.2325262 0.1211526 0.848 86 105 101
-0.1767365 0.09589155 0.671 176 150 122
-0.2059725 0.1218273 0.8520001 171 145 117
-0.2086864 0.1262781 0.883 158 135 105
-0.2006716 0.1242938 0.869 146 124 90
-0.1959643 0.1243116 0.869 135 115 81
-0.1912555 0.1243294 0.869 120 102 68
-0.1863306 0.124204 0.868 111 88 56
-0.1828797 0.1250802 0.874 110 84 55
-0.1799737 0.126386 0.883 121 95 67
-0.1759766 0.1269762 0.887 122 98 72
-0.1713555 0.1271369 0.8880001 116 90 62
-0.166722 0.1272974 0.8890001 113 87 59
-0.1626223 0.1278874 0.8930001 124 95 66
-0.1602444 0.1299096 0.9070001 139 106 75
-0.1571989 0.1315022 0.918 149 112 80
-0.1513793 0.1308028 0.913 160 124 89
-0.1452918 0.1298162 0.906 165 129 94
-0.1400534 0.1295456 0.904 171 134 93
-0.1351341 0.1295612 0.904 168 130 88
-0.1302133 0.1295764 0.904 163 125 83
-0.1250137 0.1293046 0.9020001 167 130 88
-0.1198345 0.1290322 0.9 164 130 87
-0.1145478 0.128616 0.897 167 134 93
-0.1092924 0.1281992 0.8940001 146 129 109
-0.1045355 0.1283555 0.895 65 60 49
-0.09943227 0.1280811 0.8930001 49 49 39
-0.09424368 0.1276627 0.89 40 42 34
-0.08948829 0.1278176 0.891 35 36 30
-0.08434088 0.1273981 0.8880001 38 39 33
-0.0785984 0.1259736 0.878 39 43 36
-0.07346838 0.1254093 0.874 40 44 37
-0.06861681 0.1252748 0.873 42 46 39
-0.06384834 0.1252833 0.873 45 49 42
-0.05921429 0.1255783 0.8750001 45 46 42
-0.05424648 0.1251551 0.872 52 53 49
-0.04919717 0.1244442 0.867 53 54 50
-0.04420181 0.1237326 0.862 58 61 57
-0.03930626 0.1231639 0.858 62 64 64
-0.03473627 0.1235994 0.8610001 75 77 79
-0.02995858 0.1233166 0.859 80 82 82
-0.02508468 0.1224589 0.853 80 84 84
-0.02018027 0.1210262 0.8430001 79 86 83
-0.015348 0.1193058 0.831 80 87 86
-0.01069876 0.1181589 0.823 81 88 87
-0.006182055 0.1178729 0.821 80 87 86
-0.001678895 0.117012 0.8150001 85 91 93
0.002758651 0.1161505 0.809 82 88 91
0.007139396 0.115432 0.804 91 97 99
0.01153708 0.1154307 0.804 94 101 98
0.01597423 0.115716 0.8060001 100 106 108
0.02048359 0.1162879 0.8100001 101 107 109
0.02506715 0.1170027 0.8150001 100 106 112
0.0296688 0.1175733 0.8190001 102 111 116
0.03435544 0.1182868 0.8240001 124 135 140
0.03886043 0.118282 0.8240001 189 201 200
0.04373324 0.1192814 0.831 219 230 225
0.04856574 0.1199931 0.836 224 233 226
0.05351574 0.1208476 0.8420001 221 231 222
0.05839249 0.1214144 0.846 220 229 218
0.06271624 0.1208326 0.8420001 186 195 184
0.06811463 0.1222592 0.8520001 190 197 186
0.06986335 0.1173717 0.818 189 198 187
0.07841831 0.123819 0.863 180 189 178
0.0844774 0.1258173 0.877 167 175 167
0.09115236 0.1219223 0.85 205 211 204
0.1117652 0.1356663 0.946 162 164 156
0.1040982 0.1109647 0.774 200 212 201
0.8687902 0.2222072 1.553 254 254 254
0.8673937 0.2197091 1.535 254 254 254
0.8692409 0.2180725 1.523 249 252 255
0.8698229 0.2161525 1.509 150 161 176
0.8725985 0.2148085 1.499 116 135 155
0.8788124 0.2143281 1.495 113 133 151
0.8844133 0.2137083 1.49 114 134 150
0.8875868 0.2125187 1.481 113 132 144
0.8955254 0.2124812 1.48 107 124 136
0.8998168 0.2115867 1.473 104 121 133
0.9034403 0.2105525 1.465 100 116 126
0.9063798 0.2093785 1.456 101 118 128
0.9098749 0.2083521 1.448 110 129 141
0.9215547 0.2092016 1.453 109 125 141
0.931408 0.2096254 1.455 107 121 138
0.9348605 0.2086136 1.447 115 127 146
0.9421677 0.2084719 1.445 95 102 122
0.9481741 0.208047 1.441 67 73 89
0.9588209 0.208639 1.444 81 90 101
0.9695457 0.2092381 1.447 83 93 100
0.9756179 0.2088315 1.443 89 95 102
0.9769112 0.2074168 1.432 67 70 76
0.9815586 0.2067313 1.426 38 42 42
-0.1479187 0.06868013 0.5 162 145 126
-0.2023226 0.117763 0.8560001 140 118 90
-0.2025368 0.1206696 0.877 134 111 81
-0.1986882 0.1212376 0.881 111 89 61
-0.1943545 0.1215304 0.883 109 87 59
-0.189783 0.1216856 0.8840001 110 88 60
-0.1864546 0.1226667 0.891 122 98 70
-0.1830488 0.123648 0.8980001 115 96 74
-0.1779781 0.1235277 0.897 109 92 72
-0.1738815 0.1240959 0.901 129 106 83
-0.1693648 0.1243885 0.9030001 139 115 75
-0.1655532 0.1252321 0.909 153 118 86
-0.1643252 0.1281424 0.9300001 160 125 94
-0.1585858 0.1276081 0.9260001 167 133 98
-0.1523907 0.1266599 0.919 170 134 98
-0.1469115 0.1262625 0.9160001 176 141 102
-0.1411535 0.125589 0.9110001 173 136 95
-0.1358968 0.1253285 0.909 168 130 89
-0.1308043 0.1252055 0.9080001 168 131 90
-0.125444 0.1248063 0.905 166 132 87
-0.1202479 0.1245444 0.9030001 164 133 94
-0.1148167 0.1240063 0.899 158 139 110
-0.1096721 0.1237435 0.897 109 103 86
-0.1046648 0.1236181 0.896 46 46 38
-0.09955564 0.1233543 0.8940001 40 41 35
-0.09446697 0.1230899 0.892 37 39 31
-0.08929839 0.122687 0.8890001 36 37 31
-0.08378136 0.1217314 0.882 38 42 35
-0.07825007 0.1206371 0.874 40 44 37
-0.07339352 0.1205084 0.873 39 43 35
-0.06854686 0.1203792 0.872 39 40 34
-0.06385644 0.1205255 0.873 41 41 39
-0.05908646 0.1205332 0.873 43 43 41
-0.05381791 0.1194357 0.8650001 52 53 49
-0.04880624 0.1187518 0.86 60 61 57
-0.04395109 0.1183434 0.8570001 62 65 61
-0.03949462 0.1190392 0.862 65 68 65
-0.03482149 0.1191821 0.863 71 73 73
-0.02982296 0.1180814 0.855 69 72 69
-0.02470561 0.1160133 0.84 73 75 77
-0.01984772 0.1144969 0.8290001 83 88 85
-0.01523918 0.1139467 0.825 94 101 98
-0.01058315 0.1124291 0.814 101 108 107
-0.006039781 0.1107727 0.802 103 110 109
-0.001644092 0.1102207 0.798 98 104 106
0.00272832 0.1104969 0.8 94 101 100
0.007131454 0.1109106 0.803 96 103 102
0.01150989 0.1107713 0.802 99 106 103
0.01597632 0.111322 0.8060001 95 102 101
0.02033453 0.1110434 0.804 92 99 98
0.02479358 0.1113167 0.8060001 99 106 108
0.02938282 0.1120038 0.811 98 107 110
0.03390121 0.1122759 0.813 106 115 118
0.03848813 0.1126856 0.816 115 126 129
0.04310727 0.1130947 0.8190001 181 194 190
0.04775857 0.1135032 0.822 212 223 216
0.05269623 0.1144634 0.8290001 217 225 217
0.05784768 0.115699 0.8380001 214 222 214
0.06279868 0.1163818 0.8430001 204 210 202
0.06732364 0.1162356 0.8420001 205 214 203
0.06634124 0.100759 0.73 163 169 162
0.08044166 0.1152422 0.835 164 172 164
0.08784901 0.1190962 0.863 162 168 160
0.112681 0.1029897 0.747 207 215 208
0.1170584 0.1032527 0.749 211 223 214
0.8642409 0.2126222 1.545 254 254 254
0.8673162 0.2113196 1.535 252 254 254
0.8691597 0.2097446 1.523 240 245 251
0.869738 0.2078971 1.509 145 157 174
0.87251 0.2066036 1.499 126 147 169
0.877544 0.2058649 1.493 123 144 164
0.8837228 0.2054058 1.489 124 142 158
0.8880848 0.2045367 1.482 110 126 141
0.8966295 0.2046379 1.482 103 120 132
0.9021495 0.2040531 1.477 102 120 128
0.9027089 0.2023667 1.464 92 109 119
0.905638 0.2012366 1.455 94 111 123
0.9116358 0.200802 1.451 105 124 134
0.9226933 0.2014799 1.455 114 129 144
0.9319125 0.2017481 1.456 107 122 137
0.9379498 0.2013288 1.452 122 134 151
0.9413696 0.2003595 1.444 112 118 135
0.9486801 0.2002275 1.442 66 73 86
0.9633096 0.2016297 1.451 84 96 105
0.9707204 0.2015102 1.449 90 101 106
0.9767985 0.2011184 1.445 80 86 92
0.981509 0.2004535 1.439 38 44 46
0.9861931 0.199794 1.433 43 50 46
-0.2006848 0.1121832 0.849 117 110 99
-0.1960872 0.1121997 0.849 108 102 96
-0.193518 0.1134058 0.858 106 92 82
-0.1950322 0.1171238 0.886 112 103 92
-0.1887267 0.1162154 0.8790001 109 103 87
-0.1827048 0.1154389 0.873 118 114 98
-0.1779696 0.1154555 0.873 124 132 117
-0.1777968 0.1185142 0.896 129 138 126
-0.1713895 0.1174726 0.8880001 157 148 143
-0.165255 0.1165629 0.881 162 139 119
-0.1608341 0.1168436 0.883 173 135 107
-0.1585105 0.1187123 0.897 178 141 109
-0.1618565 0.1250814 0.9450001 182 146 111
-0.1545626 0.1233769 0.932 183 149 113
-0.1475688 0.1218041 0.92 181 146 105
-0.1417886 0.1211573 0.915 180 145 104
-0.1366593 0.1210398 0.914 175 140 101
-0.131107 0.1205246 0.91 177 140 101
-0.1258739 0.1202738 0.9080001 166 133 92
-0.1205279 0.11989 0.905 169 146 114
-0.1150853 0.1193733 0.901 120 108 98
-0.1102962 0.1195185 0.9020001 48 45 38
-0.1045602 0.1186032 0.895 41 42 36
-0.09934458 0.1182173 0.892 36 35 29
-0.09437222 0.118096 0.891 34 36 28
-0.08860581 0.1169138 0.882 36 38 30
-0.08312642 0.115996 0.8750001 37 41 34
-0.07816999 0.1157404 0.873 44 45 39
-0.07340246 0.1157495 0.873 45 44 38
-0.06855526 0.1156254 0.872 40 41 37
-0.06371798 0.1155008 0.8710001 39 40 36
-0.05841688 0.1144473 0.863 49 52 48
-0.0533268 0.1136584 0.8570001 57 57 55
-0.04864207 0.1136647 0.8570001 62 63 59
-0.04400789 0.113803 0.858 65 68 65
-0.0394996 0.1143388 0.862 55 60 57
-0.03450305 0.1134148 0.855 69 71 71
-0.02923369 0.1111637 0.8380001 82 85 82
-0.0242381 0.1093099 0.8240001 69 74 70
-0.01963475 0.108782 0.8200001 68 73 70
-0.01490859 0.1070595 0.807 57 62 58
-0.01038946 0.1059998 0.799 51 56 52
-0.006002891 0.1057355 0.7970001 49 56 53
-0.001648423 0.106134 0.8 66 73 69
0.002728668 0.1061339 0.8 74 81 78
0.007087952 0.1058679 0.798 79 86 83
0.01139653 0.1053361 0.794 84 91 90
0.01574047 0.1053344 0.794 86 92 94
0.02008416 0.1053322 0.794 90 97 96
0.0244583 0.1054621 0.795 94 101 100
0.02895172 0.1059893 0.799 96 104 103
0.03344674 0.1063834 0.802 101 109 108
0.03806841 0.1070422 0.807 106 115 118
0.04269155 0.1075678 0.811 136 145 147
0.047474 0.108358 0.817 180 190 187
0.05213061 0.1087498 0.8200001 202 210 202
0.0568883 0.1092736 0.8240001 205 213 205
0.06228487 0.1108577 0.836 198 206 198
0.06757177 0.1120433 0.845 194 203 192
0.07184545 0.1115045 0.841 181 190 179
0.08603954 0.1183797 0.8930001 166 175 164
0.08945797 0.1105385 0.8340001 202 208 200
0.1621448 0.09224093 0.698 139 146 134
0.8538101 0.2037212 1.542 254 254 254
0.861374 0.2035233 1.54 254 254 254
0.8661125 0.202668 1.533 252 254 254
0.8662294 0.200758 1.518 237 240 246
0.8679285 0.1992474 1.506 140 148 165
0.8712618 0.1981367 1.497 120 143 165
0.8762804 0.1974263 1.491 129 152 172
0.8848172 0.1975145 1.491 120 142 158
0.8891867 0.1966792 1.484 101 119 134
0.8953185 0.1962453 1.48 104 119 134
0.9008225 0.1956828 1.475 101 117 132
0.9025996 0.1943279 1.464 96 115 127
0.904902 0.193109 1.454 103 120 132
0.9121456 0.1929566 1.452 109 124 137
0.9225693 0.1934737 1.455 109 125 135
0.932423 0.1938635 1.457 109 125 135
0.9403988 0.1938595 1.456 121 136 149
0.9425338 0.1926617 1.446 108 116 133
0.9511662 0.1928009 1.446 70 78 94
0.9638214 0.1937464 1.452 67 80 85
0.9719021 0.1937645 1.451 79 90 95
0.9773106 0.1932538 1.446 73 80 83
0.9813393 0.1924807 1.439 46 53 52
0.9894578 0.1925158 1.438 51 58 54
-0.1992828 0.1068052 0.8430001 107 113 119
-0.185414 0.1041756 0.822 92 91 85
-0.1792955 0.1058545 0.835 121 118 104
-0.1829305 0.1108148 0.874 129 124 118
-0.1675881 0.1042369 0.822 124 130 122
-0.1716613 0.1097055 0.8650001 129 135 128
-0.1698615 0.1116238 0.8800001 111 119 112
-0.1701483 0.1150649 0.9070001 109 111 101
-0.1708689 0.1190142 0.938 136 121 101
-0.1761992 0.1265175 0.997 157 132 110
-0.1699236 0.1259 0.992 178 146 119
-0.1602175 0.1226165 0.966 178 145 114
-0.1495091 0.1183162 0.932 183 149 114
-0.1431983 0.1173155 0.924 184 148 112
-0.1371224 0.1164412 0.9170001 179 143 107
-0.1314092 0.1158204 0.9120001 173 137 102
-0.1260262 0.115453 0.909 163 134 105
-0.1206743 0.1150852 0.906 130 117 94
-0.115609 0.114971 0.905 59 56 42
-0.1100639 0.1143481 0.9 42 44 36
-0.1042214 0.1133434 0.892 34 35 29
-0.09924448 0.1132277 0.891 33 32 26
-0.09353561 0.1122218 0.883 40 41 35
-0.08811369 0.1114695 0.877 42 43 37
-0.0831361 0.1112251 0.8750001 46 47 41
-0.07800005 0.1107259 0.8710001 38 39 33
-0.07324293 0.1107346 0.8710001 38 39 33
-0.06840613 0.1106157 0.8700001 41 42 36
-0.06299395 0.1094791 0.8610001 49 50 44
-0.05808539 0.1091047 0.858 58 59 55
-0.05327099 0.108857 0.8560001 60 63 60
-0.04870472 0.1091174 0.858 59 59 57
-0.04437232 0.1100132 0.8650001 57 57 55
-0.03927527 0.1090007 0.8570001 66 66 64
-0.03370008 0.1062069 0.835 66 67 63
-0.02878371 0.1049387 0.825 48 49 45
-0.02391747 0.1034155 0.813 32 35 31
-0.01913426 0.1016372 0.799 34 39 35
-0.01468871 0.1011304 0.795 70 75 71
-0.01037773 0.1015136 0.798 82 87 83
-0.005996101 0.1012601 0.7960001 89 94 90
-0.001636261 0.1010062 0.794 78 85 81
0.002705127 0.1008789 0.793 84 91 87
0.007008879 0.1003695 0.789 84 91 88
0.0112831 0.09998672 0.786 84 91 90
0.01560362 0.1001123 0.7870001 81 88 87
0.01996014 0.1003646 0.789 88 95 92
0.02433823 0.1006163 0.791 90 97 96
0.02873783 0.1008675 0.793 92 99 96
0.03320057 0.1012454 0.7960001 91 97 99
0.03778998 0.101877 0.8010001 99 105 111
0.04227555 0.1021266 0.803 107 113 119
0.0469567 0.1027572 0.808 134 141 140
0.05175539 0.1035144 0.814 147 154 150
0.05641177 0.1038895 0.817 153 161 153
0.06124912 0.1045183 0.822 155 163 155
0.06693997 0.106418 0.837 155 164 153
0.07262286 0.1080627 0.85 136 145 134
0.07526521 0.1052574 0.8280001 134 142 134
0.8399057 0.1921387 1.517 254 254 254
0.8590704 0.1946079 1.536 254 254 254
0.8660426 0.194294 1.533 252 254 254
0.8644446 0.1920819 1.515 227 232 238
0.8666996 0.1907597 1.504 136 150 167
0.8711817 0.1899478 1.497 120 143 163
0.8773719 0.18952 1.493 117 138 158
0.8817623 0.1887149 1.486 113 135 151
0.8878965 0.1882943 1.482 107 125 140
0.8940126 0.1878775 1.478 105 121 136
0.8982796 0.187083 1.471 111 127 142
0.9043447 0.1866738 1.467 106 123 135
0.9060383 0.1853774 1.456 103 118 131
0.9120327 0.1849759 1.452 107 124 136
0.9230852 0.1855984 1.456 102 118 133
0.9322996 0.1858437 1.457 108 123 136
0.9389786 0.1855838 1.454 115 129 139
0.9450075 0.1852009 1.45 108 116 132
0.9536583 0.1853338 1.45 73 77 91
0.9669948 0.1863677 1.457 70 80 87
0.9750999 0.1863846 1.456 77 87 94
0.9771543 0.1852541 1.446 60 66 72
0.9845868 0.1851533 1.444 39 46 43
0.9906657 0.1848015 1.44 52 60 53
-0.2000462 0.1050237 0.8660001 134 141 120
-0.1800943 0.09923235 0.818 134 122 93
-0.1926249 0.1088322 0.897 129 117 88
-0.1915286 0.1110326 0.915 129 116 87
-0.1771861 0.1054661 0.869 125 121 104
-0.1831881 0.1120361 0.923 124 119 113
-0.178757 0.1124165 0.9260001 85 88 85
-0.185736 0.1202033 0.9900001 85 90 87
-0.1892852 0.1261705 1.039 77 78 72
-0.1785138 0.1226659 1.01 132 124 115
-0.1689123 0.1197674 0.9860001 186 162 136
-0.162058 0.11869 0.9770001 188 161 132
-0.1517701 0.1149391 0.946 187 155 122
-0.1439877 0.1128881 0.929 185 151 116
-0.1378842 0.1120516 0.9220001 173 142 105
-0.1317111 0.1110929 0.914 168 134 99
-0.1263167 0.1107415 0.9110001 139 122 93
-0.1210867 0.1105112 0.909 89 81 64
-0.1156214 0.1100373 0.905 40 41 29
-0.1095866 0.1089548 0.896 40 40 32
-0.1042328 0.1084798 0.892 38 38 30
-0.09858702 0.1076393 0.8850001 39 38 32
-0.0928044 0.1065551 0.876 42 43 37
-0.08802306 0.1065649 0.876 42 43 37
-0.08286038 0.1060877 0.872 41 42 36
-0.07782976 0.1057317 0.869 39 40 34
-0.07325129 0.1059834 0.8710001 38 42 35
-0.0680208 0.1052613 0.8650001 42 46 39
-0.06256218 0.1040517 0.855 52 56 49
-0.0578213 0.1039368 0.854 52 55 51
-0.05333943 0.1043083 0.8570001 52 56 49
-0.04871042 0.1044359 0.858 55 58 54
-0.04396711 0.1043195 0.8570001 59 59 57
-0.03836321 0.1018897 0.837 61 62 58
-0.03330042 0.100433 0.825 35 36 30
-0.02833351 0.09885398 0.812 58 59 55
-0.02347898 0.0971526 0.798 74 79 76
-0.01906469 0.09691159 0.7960001 75 79 79
-0.01472742 0.09703531 0.7970001 72 77 74
-0.01031394 0.09654978 0.793 70 75 72
-0.005951615 0.09618547 0.79 73 78 74
-0.001626152 0.09606416 0.789 73 78 75
0.002691803 0.09606409 0.789 73 77 77
0.006991947 0.09582002 0.7870001 77 82 79
0.01131316 0.09594069 0.788 75 82 78
0.01564514 0.09606087 0.789 77 82 79
0.01991191 0.09581529 0.7870001 73 78 75
0.0242488 0.09593446 0.788 80 87 84
0.02866875 0.09629661 0.791 86 94 91
0.03303764 0.09641476 0.7920001 88 94 96
0.03755851 0.09689761 0.7960001 90 97 100
0.0419646 0.09701474 0.7970001 101 107 113
0.04667158 0.09773996 0.803 105 112 115
0.05144347 0.09846464 0.809 113 120 122
0.05621114 0.09906704 0.814 65 72 69
0.06088357 0.09942549 0.817 58 61 58
0.06558789 0.09978344 0.8200001 36 40 33
0.0713494 0.101601 0.835 43 49 42
0.07672829 0.1026878 0.844 53 60 49
0.0781568 0.09866434 0.811 63 69 61
0.08625012 0.1030348 0.8470001 51 59 51
0.08915626 0.1010789 0.831 141 147 139
0.1897053 0.101397 0.836 128 136 128
0.8536878 0.186891 1.542 254 254 254
0.8618038 0.1868294 1.541 254 254 254
0.8631519 0.1853158 1.528 252 254 254
0.8643753 0.1838047 1.515 213 218 225
0.8672034 0.1826602 1.505 134 148 165
0.8705239 0.1816399 1.496 131 151 169
0.8743542 0.180744 1.488 128 145 164
0.8822722 0.1807017 1.487 116 134 150
0.8872102 0.1800555 1.481 102 119 131
0.8957359 0.1801424 1.481 106 121 136
0.8987951 0.1791383 1.472 105 120 135
0.9036291 0.1785026 1.466 98 113 126
0.905313 0.1772614 1.455 98 114 123
0.9112973 0.1768764 1.451 102 118 133
0.9223387 0.1774712 1.455 102 116 133
0.9315423 0.1777052 1.456 102 116 133
0.9382106 0.1774556 1.453 111 125 142
0.9461837 0.177455 1.452 117 127 144
0.9561564 0.1778263 1.454 91 95 111
0.9695107 0.1788151 1.461 68 73 83
0.9742861 0.1782184 1.455 74 84 91
0.9824107 0.178239 1.454 65 72 75
0.9871591 0.1776518 1.448 39 44 40
0.9911933 0.1769464 1.441 39 47 40
-0.189666 0.09509838 0.821 141 141 123
-0.180932 0.0929117 0.802 143 137 93
-0.1774667 0.09338927 0.8060001 136 124 95
-0.1844273 0.10211 0.881 133 121 102
-0.1816874 0.1032844 0.891 97 101 94
-0.1806237 0.1055024 0.91 79 84 80
-0.1994497 0.1232765 1.063 71 78 74
-0.1902135 0.1210902 1.044 63 67 60
-0.1749952 0.114843 0.9900001 135 127 110
-0.1675576 0.1134666 0.978 180 161 132
-0.1610781 0.1126697 0.9710001 187 161 133
-0.1527475 0.1104797 0.952 183 152 123
-0.1444668 0.1081727 0.932 176 145 114
-0.1380474 0.1071417 0.923 160 133 104
-0.1320125 0.1063423 0.9160001 136 124 97
-0.1260521 0.1055423 0.909 73 74 52
-0.1202997 0.1048579 0.9030001 36 40 23
-0.1142278 0.1038246 0.8940001 39 40 28
-0.1089864 0.1034876 0.891 38 38 30
-0.1035426 0.1029177 0.886 42 42 34
-0.09781762 0.1019988 0.878 38 37 31
-0.09281433 0.1017764 0.876 42 43 37
-0.08763057 0.1013212 0.872 41 45 38
-0.08248924 0.1008654 0.868 37 38 32
-0.07756955 0.1006415 0.8660001 36 37 31
-0.07258647 0.100301 0.863 39 40 36
-0.06755646 0.09984364 0.859 48 51 47
-0.06256915 0.09938578 0.855 48 51 47
-0.05782777 0.09927613 0.854 50 53 49
-0.05340767 0.09974724 0.858 53 57 50
-0.04871591 0.09975288 0.858 58 62 54
-0.04309983 0.09766521 0.84 42 48 41
-0.03777166 0.09580937 0.8240001 51 57 50
-0.03261795 0.09395288 0.808 70 73 69
-0.02784818 0.09279347 0.798 70 71 67
-0.02339339 0.09244748 0.795 60 62 62
-0.01904292 0.09244987 0.795 57 61 61
-0.01461823 0.0919866 0.791 59 64 60
-0.0102631 0.09175543 0.789 53 58 54
-0.005929696 0.09152376 0.7870001 61 65 58
-0.001616033 0.0911753 0.784 63 66 62
0.002681877 0.09140783 0.786 69 72 69
0.007010523 0.09175617 0.789 63 68 65
0.01128574 0.09140625 0.786 69 74 71
0.01552795 0.09105586 0.7830001 74 78 78
0.01978768 0.09093758 0.7820001 73 77 77
0.02415925 0.09128397 0.785 73 80 77
0.02859952 0.09174614 0.789 78 85 81
0.03291624 0.0917427 0.789 83 89 91
0.0374684 0.09232015 0.794 90 97 99
0.04186403 0.09243201 0.795 97 104 107
0.0463862 0.0927759 0.798 110 117 120
0.05106767 0.09335183 0.803 108 115 117
0.05580304 0.0939272 0.808 143 150 147
0.06051769 0.09438582 0.812 142 147 144
0.06519517 0.09472769 0.8150001 131 136 132
0.07041721 0.09576639 0.8240001 128 134 127
0.07619115 0.09738556 0.8380001 148 154 147
0.08096033 0.09760958 0.84 176 179 175
0.07801027 0.08900259 0.766 163 169 162
0.100353 0.1033903 0.89 156 162 155
0.8608281 0.1799834 1.555 252 254 254
0.8623035 0.1785351 1.542 254 254 254
0.8613947 0.1766258 1.525 252 254 254
0.8614573 0.1749503 1.51 201 205 215
0.8671347 0.174436 1.505 132 146 165
0.8710338 0.1735771 1.497 124 144 162
0.8772167 0.1731849 1.493 121 139 155
0.8839731 0.1729121 1.49 119 135 150
0.8889245 0.1722945 1.484 102 119 131
0.8956491 0.1720286 1.481 98 114 129
0.8999258 0.1713015 1.474 100 116 132
0.9041513 0.1705777 1.467 88 103 118
0.907704 0.1697408 1.459 101 117 127
0.9118233 0.1690235 1.452 105 121 136
0.9209644 0.1692415 1.453 106 122 138
0.9327103 0.1699303 1.458 102 120 136
0.9432597 0.1703913 1.461 106 124 140
0.947366 0.1696904 1.454 115 129 146
0.9606329 0.1706283 1.461 99 105 121
0.9720327 0.1712218 1.465 64 69 79
0.9768274 0.1706517 1.459 69 76 78
0.9836194 0.1704369 1.456 53 60 57
0.9883749 0.1698756 1.45 34 39 35
0.9896652 0.1687324 1.439 46 54 47
-0.2040044 0.09747357 0.883 156 165 144
-0.1817024 0.09343208 0.846 118 115 101
-0.179627 0.09477171 0.858 74 80 73
-0.1808867 0.09798966 0.887 74 81 77
-0.2131936 0.1186658 1.074 86 84 74
-0.2085218 0.1193463 1.08 71 78 74
-0.1998423 0.1177058 1.065 71 78 74
-0.186586 0.1131906 1.024 87 88 82
-0.1728895 0.1081212 0.978 115 101 84
-0.1663734 0.1073622 0.9710001 185 161 133
-0.1597656 0.1064922 0.9630001 184 158 129
-0.1521199 0.1048474 0.9480001 169 143 115
-0.1438604 0.1026489 0.928 153 129 101
-0.1371631 0.1014451 0.9170001 85 71 52
-0.130728 0.1003514 0.9070001 62 64 46
-0.1249549 0.09969963 0.901 41 45 28
-0.1196454 0.09937938 0.8980001 39 41 31
-0.1141114 0.09883735 0.8930001 40 42 34
-0.108508 0.09818412 0.887 42 44 36
-0.1028518 0.09741967 0.8800001 41 42 36
-0.09782761 0.09720825 0.878 41 40 34
-0.09240002 0.09655348 0.872 41 42 36
-0.08713714 0.09600892 0.867 38 42 35
-0.08240282 0.09601756 0.867 35 36 30
-0.07739854 0.09569351 0.864 37 38 32
-0.07208944 0.09492592 0.8570001 46 47 41
-0.06717037 0.09460085 0.854 47 50 46
-0.06235628 0.09438606 0.8520001 47 50 46
-0.05776627 0.09450317 0.853 53 56 52
-0.05341344 0.09506299 0.858 49 52 48
-0.04792621 0.09351718 0.844 43 47 40
-0.04243743 0.09163831 0.827 52 57 53
-0.03699644 0.08942635 0.807 56 61 58
-0.03213705 0.08821107 0.7960001 55 58 55
-0.02774654 0.08810347 0.795 48 51 47
-0.02333711 0.08788458 0.793 45 48 44
-0.01885338 0.08722191 0.7870001 45 50 46
-0.0145644 0.08733454 0.788 51 57 50
-0.01023822 0.08722505 0.7870001 54 60 53
-0.005900212 0.08678259 0.7830001 58 63 59
-0.001620335 0.0871155 0.786 56 60 60
0.002688999 0.08733711 0.788 64 68 68
0.006957981 0.08678243 0.7830001 64 68 68
0.01117211 0.08622728 0.7780001 67 71 71
0.015371 0.08589335 0.775 67 71 73
0.01966333 0.0861131 0.777 69 73 75
0.02397724 0.0863324 0.779 72 76 76
0.02834891 0.08666205 0.7820001 73 78 75
0.03266951 0.0867696 0.7830001 74 81 80
0.03700054 0.08687667 0.784 78 84 86
0.04144727 0.08720491 0.7870001 83 90 89
0.04610056 0.08786508 0.793 86 93 92
0.05081877 0.08852472 0.799 95 102 104
0.05539461 0.0888515 0.802 117 124 123
0.06015148 0.08939935 0.807 111 118 115
0.06520209 0.09027901 0.8150001 106 114 107
0.06991185 0.09060429 0.818 106 112 104
0.07510798 0.09148288 0.826 113 117 110
0.08096876 0.09302536 0.84 116 120 113
0.08025908 0.0872587 0.788 191 195 188
0.08520445 0.08791471 0.794 136 139 135
0.09731848 0.09554514 0.863 136 139 135
0.111557 0.09984182 0.9020001 81 82 76
0.1054421 0.0833203 0.753 131 142 135
0.8530248 0.169958 1.541 252 255 252
0.8594512 0.1695697 1.537 254 254 254
0.8619005 0.1684119 1.526 252 254 255
0.8642478 0.1672565 1.515 194 199 209
0.8641891 0.1656617 1.5 124 138 157
0.8698021 0.1651739 1.495 116 137 157
0.8759702 0.1647996 1.491 116 133 153
0.8815251 0.1643179 1.486 109 127 143
0.8888462 0.1641711 1.484 96 114 130
0.8955669 0.1639172 1.481 101 117 133
0.9004505 0.1633346 1.475 99 114 129
0.9046782 0.1626444 1.468 89 104 117
0.9088552 0.1619573 1.461 99 114 127
0.9129825 0.1612734 1.454 109 126 138
0.9202296 0.1611476 1.452 104 120 136
0.9332442 0.1620254 1.459 104 120 135
0.9425034 0.1622418 1.46 99 114 129
0.9485541 0.1619069 1.456 108 122 139
0.9657721 0.1634677 1.469 95 105 122
0.9758877 0.1638105 1.471 65 70 80
0.9787054 0.1629327 1.462 68 73 79
0.9834842 0.1623931 1.456 52 59 56
0.9909611 0.1623041 1.454 38 44 36
0.9950218 0.1616615 1.447 44 51 48
-0.1748513 0.08335192 0.794 67 67 57
-0.1894815 0.09503353 0.905 74 74 66
-0.2142034 0.1133393 1.079 72 74 74
-0.2079596 0.1131461 1.077 71 78 74
-0.1977946 0.110746 1.054 62 68 61
-0.1809527 0.1043517 0.993 94 92 82
-0.1714899 0.1019492 0.97 149 134 105
-0.162618 0.09975604 0.9490001 182 163 134
-0.1546363 0.09798253 0.932 165 152 128
-0.1471586 0.09641856 0.9170001 50 40 23
-0.1409277 0.09559002 0.909 30 26 12
-0.1355301 0.09528681 0.906 62 61 45
-0.1300194 0.09487805 0.9020001 68 71 57
-0.1248279 0.09467927 0.9 36 38 28
-0.1196567 0.0944801 0.8980001 41 41 33
-0.1137389 0.0936492 0.89 42 44 36
-0.1080291 0.09292299 0.883 40 41 35
-0.1033293 0.09303824 0.8840001 37 38 32
-0.09761433 0.09220582 0.876 44 45 39
-0.09219721 0.09158338 0.8700001 42 43 37
-0.08704529 0.09117097 0.8660001 35 37 29
-0.08241107 0.09128454 0.867 34 35 29
-0.07677922 0.09023944 0.8570001 50 51 45
-0.07167614 0.08972029 0.8520001 52 53 47
-0.06686259 0.08951657 0.85 52 53 49
-0.06236269 0.08973369 0.8520001 49 50 44
-0.05790769 0.09005571 0.855 47 51 44
-0.05267186 0.08911332 0.846 47 50 46
-0.04713614 0.08743299 0.83 54 55 51
-0.04146678 0.08511995 0.808 49 53 46
-0.03649597 0.08385974 0.7960001 45 48 44
-0.03205968 0.08365256 0.794 38 41 37
-0.02757494 0.08323421 0.79 37 41 34
-0.02319242 0.0830261 0.788 43 49 42
-0.01885537 0.08292291 0.7870001 52 57 53
-0.01454745 0.08292464 0.7870001 62 67 64
-0.01026532 0.08313668 0.789 71 75 75
-0.005930983 0.08292678 0.7870001 73 77 77
-0.001616384 0.08261105 0.784 70 74 74
0.002651744 0.08187339 0.777 69 73 73
0.006860961 0.08134604 0.772 67 71 73
0.01107277 0.08123975 0.771 72 73 77
0.01531312 0.08134374 0.772 69 70 74
0.01961479 0.08165804 0.775 74 76 76
0.02385664 0.08165579 0.775 70 74 74
0.02817062 0.08186382 0.777 72 77 74
0.03242258 0.08186071 0.777 67 72 69
0.03672123 0.08196251 0.7780001 63 67 67
0.04124091 0.08248525 0.7830001 74 80 82
0.04569837 0.08279685 0.786 86 92 94
0.05031516 0.08331866 0.791 96 103 106
0.05491678 0.08373465 0.795 106 113 115
0.05978492 0.08446615 0.802 113 120 117
0.06464867 0.08509182 0.808 127 133 126
0.06949156 0.08561169 0.813 125 130 116
0.0742971 0.08602577 0.817 119 124 110
0.08010926 0.08749224 0.831 131 138 127
0.085462 0.08832642 0.839 146 154 146
0.08896909 0.08726527 0.8290001 209 213 206
0.08582456 0.08009915 0.761 96 95 89
0.1078301 0.09598264 0.9120001 144 143 137
0.1006831 0.08565941 0.814 117 125 110
0.1331251 0.09275973 0.882 129 143 132
0.1468698 0.06632251 0.632 75 85 68
0.8557425 0.1620787 1.546 252 255 252
0.8588392 0.1610801 1.536 254 254 254
0.8607153 0.1598741 1.524 252 254 254
0.8619077 0.1585654 1.511 191 196 203
0.8629758 0.1572588 1.498 120 134 151
0.8697379 0.1570046 1.495 119 140 162
0.8764902 0.1567534 1.492 125 145 169
0.8820477 0.156295 1.487 114 133 153
0.888772 0.1560499 1.484 101 117 133
0.8948847 0.1557029 1.48 102 117 132
0.9009801 0.155359 1.476 96 109 122
0.9045936 0.1545971 1.468 83 98 111
0.9075233 0.1537328 1.459 92 109 121
0.912891 0.1532929 1.454 105 121 131
0.9207677 0.1532784 1.453 101 116 129
0.9350626 0.1543233 1.462 103 119 129
0.9449807 0.1546343 1.464 100 115 128
0.9530051 0.1546327 1.463 123 137 154
0.9650003 0.1552701 1.468 111 121 138
0.9737783 0.1553835 1.468 68 71 85
0.9805899 0.155184 1.465 68 73 79
0.9833562 0.1543526 1.456 44 51 50
0.9887838 0.1539491 1.451 39 45 47
0.9962593 0.1538683 1.449 50 56 58
-0.1931431 0.08728812 0.877 132 129 109
-0.2196676 0.1072437 1.077 59 64 50
-0.2144185 0.1075588 1.08 68 75 71
-0.2068174 0.1066784 1.071 72 79 76
-0.1936816 0.102809 1.032 48 56 49
-0.1782337 0.09744363 0.978 51 48 34
-0.1713272 0.09656078 0.969 102 94 77
-0.1592041 0.09258787 0.929 25 23 5
-0.1521603 0.09140458 0.9170001 28 27 11
-0.1463687 0.09091853 0.9120001 27 26 12
-0.1407849 0.09053182 0.9080001 62 63 49
-0.1353924 0.09024443 0.905 68 71 59
-0.1300309 0.08995668 0.9020001 35 35 25
-0.1245617 0.08956879 0.8980001 38 39 33
-0.119401 0.08938002 0.896 45 47 39
-0.1131102 0.08829298 0.8850001 41 42 36
-0.1079167 0.08800356 0.882 38 39 33
